-2.5
1.48401 1.19489 0.889888 0.578416 0.269241 -0.0281479 -0.305648 -0.556876 -0.779067 -0.974609 -1.1482 -1.30613 -1.45494 -1.60045 -1.74781 -1.90061 -2.06142 -2.2316 -2.411 -2.5987 -2.79223 -2.98835 -3.18271 -3.36956 -3.54263 -3.69437 -3.81698 -3.90244 -3.94311 -3.93298 -3.86874 -3.75089 -3.58287 -3.37027 -3.11936 -2.83744 -2.53143 -2.20862 -1.8776 -1.54682 -1.22585 -0.923645 -0.648926 -0.41047 -0.215821 -0.0720573 0.0155391 0.0433716 0.00993249 -0.0839864 
0.88877 0.589307 0.279899 -0.0298501 -0.331126 -0.614714 -0.872778 -1.09889 -1.28999 -1.44842 -1.57941 -1.69017 -1.78827 -1.88079 -1.9742 -2.07367 -2.18333 -2.30605 -2.44314 -2.59486 -2.75975 -2.93523 -3.11733 -3.30036 -3.47774 -3.6413 -3.78234 -3.89171 -3.96039 -3.98097 -3.94866 -3.86268 -3.72536 -3.54106 -3.31456 -3.05132 -2.75696 -2.43822 -2.10394 -1.76347 -1.42778 -1.10738 -0.812344 -0.552539 -0.336383 -0.171816 -0.0648684 -0.0197724 -0.0385552 -0.120736 
0.276638 -0.030322 -0.341119 -0.645978 -0.936219 -1.20294 -1.4386 -1.63698 -1.79476 -1.91376 -1.99932 -2.05906 -2.10143 -2.13479 -2.16712 -2.20539 -2.25545 -2.32187 -2.40763 -2.51432 -2.6417 -2.788 -2.94977 -3.12153 -3.29653 -3.46611 -3.62078 -3.75037 -3.84462 -3.89479 -3.89478 -3.84259 -3.73938 -3.58791 -3.3909 -3.15174 -2.87467 -2.56574 -2.23371 -1.88854 -1.54245 -1.20768 -0.896173 -0.619324 -0.386459 -0.206203 -0.0851641 -0.0280747 -0.0373655 -0.112794 
-0.333406 -0.644751 -0.953747 -1.25061 -1.52694 -1.77415 -1.98511 -2.15392 -2.27683 -2.35471 -2.39246 -2.39793 -2.38036 -2.34954 -2.315 -2.2856 -2.26905 -2.27174 -2.29843 -2.35222 -2.43419 -2.54352 -2.67742 -2.83074 -2.99669 -3.16627 -3.32933 -3.47481 -3.59136 -3.66913 -3.70085 -3.68345 -3.61679 -3.50161 -3.33826 -3.12809 -2.87394 -2.58107 -2.25791 -1.91468 -1.56439 -1.22063 -0.897258 -0.607731 -0.362895 -0.172158 -0.042529 0.0209336 0.0155407 -0.0586058 
-0.923996 -1.23644 -1.54051 -1.82656 -2.08641 -2.31187 -2.49623 -2.63387 -2.72055 -2.75592 -2.74416 -2.69316 -2.61291 -2.51454 -2.40914 -2.30749 -2.21921 -2.15254 -2.11416 -2.10867 -2.13863 -2.20428 -2.30355 -2.43179 -2.58227 -2.74578 -2.91167 -3.06817 -3.20303 -3.30548 -3.36738 -3.38469 -3.35576 -3.27896 -3.15227 -2.9751 -2.74897 -2.47821 -2.17079 -1.83686 -1.48982 -1.14412 -0.81498 -0.517825 -0.265612 -0.0692496 0.0636793 0.127961 0.120829 0.0423684 
-1.47692 -1.78722 -2.08343 -2.35607 -2.59726 -2.79919 -2.95545 -3.06046 -3.10974 -3.10189 -3.04017 -2.93226 -2.78866 -2.62173 -2.44396 -2.26804 -2.1054 -1.96617 -1.85891 -1.78983 -1.76297 -1.77968 -1.83874 -1.93607 -2.06513 -2.21665 -2.37964 -2.5418 -2.69023 -2.81352 -2.9029 -2.95354 -2.96196 -2.92402 -2.83555 -2.69416 -2.50009 -2.25674 -1.97141 -1.65401 -1.31795 -0.97813 -0.650612 -0.35216 -0.0976502 0.0998987 0.231508 0.291593 0.277483 0.189408 
-1.97673 -2.28171 -2.56719 -2.82412 -3.04484 -3.2218 -3.34865 -3.41981 -3.43094 -3.38005 -3.2694 -3.10608 -2.90078 -2.66678 -2.41784 -2.16832 -1.93142 -1.719 -1.54152 -1.40673 -1.32017 -1.28436 -1.29895 -1.36054 -1.46286 -1.59677 -1.7511 -1.91324 -2.06991 -2.20935 -2.32254 -2.40378 -2.44762 -2.44753 -2.39739 -2.29322 -2.134 -1.9222 -1.66435 -1.36993 -1.05211 -0.725864 -0.407655 -0.115031 0.135826 0.330023 0.456516 0.508465 0.483071 0.380863 
-2.41011 -2.7065 -2.97862 -3.21781 -3.41654 -3.56732 -3.6638 -3.70056 -3.67359 -3.58087 -3.42385 -3.20866 -2.94571 -2.64885 -2.33275 -2.01322 -1.70498 -1.42154 -1.17509 -0.974852 -0.827857 -0.73775 -0.705102 -0.727252 -0.798334 -0.909458 -1.04947 -1.20569 -1.36479 -1.51505 -1.64742 -1.75527 -1.8312 -1.86652 -1.85344 -1.78649 -1.66351 -1.48601 -1.25972 -0.993536 -0.700167 -0.394379 -0.092664 0.187108 0.427996 0.613859 0.731787 0.772931 0.733446 0.61393 
-2.76634 -3.05065 -3.30681 -3.52637 -3.7018 -3.82562 -3.89153 -3.89436 -3.83054 -3.69838 -3.49902 -3.23748 -2.92336 -2.57055 -2.19423 -1.81128 -1.43767 -1.08831 -0.776932 -0.5141 -0.308235 -0.164078 -0.0831164 -0.063483 -0.0997968 -0.183581 -0.303905 -0.448308 -0.603718 -0.758905 -0.904985 -1.03438 -1.13785 -1.20486 -1.22615 -1.19496 -1.10807 -0.966078 -0.773836 -0.539584 -0.275388 0.00441925 0.283607 0.544369 0.769457 0.942044 1.04795 1.07643 1.02177 0.883726 
-3.03938 -3.30784 -3.54521 -3.74318 -3.8942 -3.99082 -4.02688 -3.99742 -3.89931 -3.73131 -3.49476 -3.19387 -2.83702 -2.43748 -2.01042 -1.57332 -1.14303 -0.735513 -0.365802 -0.0456176 0.215382 0.411435 0.540168 0.602624 0.603607 0.551024 0.455354 0.328555 0.183032 0.0291466 -0.124635 -0.269758 -0.395314 -0.489262 -0.541117 -0.54297 -0.490638 -0.38383 -0.226532 -0.026241 0.205734 0.45567 0.707835 0.944791 1.14935 1.30445 1.39517 1.40946 1.33968 1.18386 
-3.22547 -3.47415 -3.68986 -3.86443 -3.99035 -4.06035 -4.06835 -4.00959 -3.88128 -3.68249 -3.41503 -3.08289 -2.69324 -2.25814 -1.79207 -1.31255 -0.83679 -0.381456 0.0374873 0.407411 0.717621 0.961457 1.13572 1.24061 1.28027 1.26189 1.19525 1.09148 0.961875 0.815516 0.660349 0.505868 0.364344 0.249034 0.171446 0.140467 0.161151 0.234617 0.35775 0.52383 0.722391 0.940452 1.16295 1.37306 1.55393 1.68864 1.76197 1.76106 1.67683 1.50535 
-3.32399 -3.54897 -3.74027 -3.88996 -3.99074 -4.03553 -4.01839 -3.93464 -3.78165 -3.55866 -3.26777 -2.91314 -2.50134 -2.04297 -1.55115 -1.04271 -0.534678 -0.0439012 0.413135 0.823207 1.17484 1.46065 1.67667 1.82231 1.90096 1.9189 1.88496 1.8091 1.701 1.56814 1.41793 1.26063 1.1096 0.979038 0.88127 0.826009 0.819082 0.862378 0.95363 1.08692 1.25266 1.43872 1.63082 1.81293 1.96875 2.08178 2.13684 2.12067 2.02325 1.83898 
-3.33651 -3.5341 -3.69856 -3.82246 -3.89878 -3.92071 -3.88241 -3.77922 -3.60847 -3.36932 -3.06389 -2.69637 -2.27324 -1.80416 -1.30055 -0.777767 -0.251976 0.260376 0.742792 1.18183 1.56557 1.88608 2.13877 2.32225 2.43912 2.49457 2.49621 2.45239 2.37069 2.25679 2.11757 1.9639 1.8099 1.67046 1.55855 1.48456 1.45498 1.47241 1.53541 1.63884 1.77405 1.92978 2.09265 2.2475 2.37879 2.47059 2.50804 2.4778 2.3693 2.17566 
-3.26692 -3.43382 -3.56962 -3.66753 -3.72094 -3.72331 -3.66887 -3.55288 -3.37246 -3.12646 -2.81666 -2.44696 -2.02366 -1.55602 -1.05423 -0.531811 -0.00326996 0.516016 1.01013 1.46588 1.87125 2.21802 2.50114 2.71847 2.87173 2.96485 3.00389 2.9952 2.94383 2.85353 2.73074 2.58677 2.43617 2.29426 2.17449 2.08779 2.04124 2.03807 2.0776 2.15549 2.26399 2.39274 2.52932 2.65952 2.7686 2.8414 2.86351 2.82176 2.70527 2.50629 
-3.12108 -3.25455 -3.36054 -3.43301 -3.46583 -3.45275 -3.38803 -3.26672 -3.08558 -2.8429 -2.53982 -2.17958 -1.76789 -1.31353 -0.826096 -0.317688 0.199182 0.710954 1.20298 1.66283 2.07885 2.44283 2.74942 2.99581 3.18275 3.31275 3.38997 3.41825 3.39991 3.33697 3.23538 3.10658 2.96531 2.82711 2.70575 2.61256 2.5551 2.5372 2.55887 2.61655 2.70335 2.80986 2.92456 3.03424 3.12504 3.18258 3.19305 3.14354 3.0231 2.82332 
-2.90697 -3.00507 -3.08091 -3.12928 -3.14461 -3.12092 -3.05243 -2.93391 -2.76153 -2.53285 -2.24805 -1.90937 -1.5215 -1.09235 -0.630836 -0.148261 0.344325 0.835456 1.31247 1.7643 2.18015 2.55216 2.87489 3.14497 3.36209 3.52712 3.64198 3.70762 3.72367 3.69074 3.61417 3.50524 3.37861 3.24985 3.13291 3.03938 2.97724 2.95084 2.96084 3.00438 3.07544 3.16547 3.2639 3.35846 3.43617 3.48345 3.4871 3.43456 3.31488 3.11914 
-2.6339 -2.69553 -2.74164 -2.76799 -2.76953 -2.74057 -2.67523 -2.56788 -2.41397 -2.21006 -1.95512 -1.65007 -1.29824 -0.906176 -0.481714 -0.0352848 0.422863 0.882739 1.33382 1.76699 2.17285 2.54431 2.87607 3.16426 3.4075 3.60478 3.75537 3.85727 3.90784 3.90651 3.85781 3.77256 3.66513 3.55092 3.44393 3.35591 3.29519 3.26655 3.27124 3.30708 3.36884 3.4488 3.53727 3.62287 3.69347 3.73624 3.73854 3.68818 3.57418 3.38717 
-2.31225 -2.33716 -2.35473 -2.36171 -2.35365 -2.32508 -2.26998 -2.1822 -2.05627 -1.88763 -1.67374 -1.41392 -1.10982 -0.766216 -0.389449 0.0113722 0.426826 0.847713 1.26499 1.67144 2.05946 2.42311 2.75754 3.05851 3.32346 3.54924 3.7323 3.86806 3.95222 3.98305 3.96411 3.90545 3.82093 3.72564 3.63349 3.55632 3.50271 3.47782 3.48343 3.51799 3.57696 3.65342 3.73847 3.82155 3.89125 3.93543 3.94193 3.89881 3.79501 3.62074 
-1.95372 -1.94256 -1.9335 -1.92433 -1.91115 -1.88872 -1.85079 -1.79059 -1.70162 -1.57798 -1.41542 -1.21142 -0.965642 -0.68076 -0.36127 -0.0145422 0.351206 0.727505 1.10614 1.48111 1.84639 2.19724 2.52943 2.83848 3.12056 3.37024 3.58141 3.7477 3.86359 3.92625 3.93799 3.90787 3.84908 3.77622 3.70302 3.64131 3.59984 3.58413 3.59638 3.63562 3.69796 3.77714 3.86497 3.95158 4.0262 4.07718 4.09272 4.06102 3.97095 3.8125 
-1.56941 -1.52359 -1.49038 -1.46857 -1.45486 -1.44417 -1.42994 -1.40472 -1.36082 -1.29088 -1.18873 -1.04979 -0.871526 -0.654205 -0.400187 -0.114769 0.195381 0.52278 0.859803 1.20109 1.54161 1.87739 2.20454 2.51816 2.81303 3.08163 3.3162 3.50937 3.65466 3.74816 3.79081 3.79045 3.75939 3.71164 3.66065 3.61815 3.59301 3.59104 3.61481 3.66385 3.73481 3.82202 3.91788 4.01304 4.09721 4.15909 4.18715 4.1698 4.09605 3.95599 
-1.17087 -1.0926 -1.03819 -1.00747 -0.997704 -1.00392 -1.01921 -1.03536 -1.04338 -1.03432 -0.999974 -0.933507 -0.829996 -0.687116 -0.504866 -0.286216 -0.036028 0.239455 0.533222 0.840083 1.15549 1.4758 1.79685 2.11275 2.41668 2.69975 2.95352 3.17013 3.34237 3.46541 3.53869 3.56867 3.56663 3.54584 3.5194 3.49886 3.49317 3.50835 3.54728 3.60992 3.69335 3.79237 3.89984 4.0068 4.10335 4.17855 4.22124 4.22024 4.16485 4.0454 
-0.767966 -0.660024 -0.587694 -0.551792 -0.550122 -0.577788 -0.627501 -0.690189 -0.755499 -0.812815 -0.851747 -0.863132 -0.839526 -0.775859 -0.669628 -0.521323 -0.333841 -0.112021 0.13784 0.410391 0.700929 1.00563 1.31961 1.63557 1.9454 2.23963 2.50959 2.74706 2.94432 3.09574 3.19934 3.25999 3.28776 3.29512 3.29473 3.29787 3.31354 3.34791 3.40411 3.48241 3.58024 3.69277 3.81324 3.9331 4.04295 4.13235 4.19069 4.20727 4.17178 4.07481 
-0.368911 -0.23457 -0.147752 -0.110236 -0.120337 -0.173191 -0.261081 -0.374059 -0.500342 -0.627601 -0.743208 -0.835606 -0.894772 -0.912826 -0.884704 -0.808355 -0.684663 -0.517013 -0.310959 -0.0722123 0.193696 0.482039 0.786849 1.09983 1.41242 1.71504 1.99879 2.25516 2.476 2.65501 2.78875 2.88035 2.93852 2.97474 3.00116 3.02875 3.06647 3.12061 3.1944 3.28836 3.40021 3.52552 3.65805 3.78983 3.91212 4.01512 4.08888 4.12328 4.10845 4.0353 
0.0194673 0.176545 0.274363 0.310235 0.285364 0.204614 0.0761498 -0.0891883 -0.278174 -0.476758 -0.670078 -0.844185 -0.986493 -1.08633 -1.13612 -1.13132 -1.07085 -0.956743 -0.793907 -0.588595 -0.347771 -0.0776853 0.214884 0.521462 0.833567 1.14165 1.43664 1.7098 1.9526 2.15818 2.3217 2.44431 2.53309 2.59842 2.65177 2.7037 2.76298 2.83583 2.92554 3.03293 3.15611 3.29127 3.43288 3.57374 3.70592 3.82042 3.90803 3.95929 3.96488 3.91609 
0.393809 0.569762 0.675211 0.706617 0.66474 0.55446 0.384396 0.166266 -0.0852839 -0.354528 -0.624421 -0.878701 -1.10231 -1.28189 -1.40749 -1.47223 -1.47327 -1.41149 -1.29141 -1.1201 -0.906114 -0.657119 -0.380131 -0.0833103 0.225069 0.535547 0.839025 1.12654 1.38923 1.61977 1.8121 1.96532 2.08458 2.1788 2.25856 2.33371 2.41259 2.5013 2.60334 2.71997 2.84998 2.99037 3.1365 3.28212 3.42026 3.54283 3.64147 3.70753 3.73223 3.70735 
0.752496 0.943346 1.05326 1.07792 1.01768 0.877432 0.666234 0.396638 0.0846335 -0.252469 -0.595571 -0.926245 -1.22713 -1.48244 -1.68004 -1.81103 -1.87112 -1.86042 -1.78336 -1.64772 -1.46312 -1.23809 -0.979696 -0.69574 -0.394237 -0.0844647 0.224487 0.523545 0.803564 1.05683 1.27632 1.45916 1.60815 1.73028 1.83475 1.93044 2.02529 2.12543 2.23472 2.3551 2.48621 2.62602 2.77097 2.9159 3.05492 3.181 3.28675 3.36436 3.40575 3.40323 
1.09713 1.29894 1.41047 1.42669 1.34757 1.17804 0.92752 0.609325 0.240666 -0.159714 -0.570865 -0.972421 -1.345 -1.67068 -1.93554 -2.12904 -2.24592 -2.28573 -2.25271 -2.15479 -2.00192 -1.80327 -1.56612 -1.29788 -1.00624 -0.700256 -0.388971 -0.0814462 0.212971 0.486242 0.730617 0.941318 1.11832 1.26613 1.39225 1.50459 1.61076 1.71703 1.82776 1.94571 2.0715 2.20425 2.34159 2.47961 2.61364 2.7378 2.84578 2.93071 2.98531 3.00249 
1.43125 1.64022 1.75087 1.75754 1.65985 1.4627 1.17586 0.81324 0.393115 -0.0645597 -0.537257 -1.00299 -1.44073 -1.83085 -2.15808 -2.41071 -2.58264 -2.67272 -2.68452 -2.62569 -2.50622 -2.33581 -2.12207 -1.87208 -1.59307 -1.29389 -0.983408 -0.670641 -0.365078 -0.0750296 0.191082 0.426657 0.628663 0.798759 0.942644 1.06718 1.17965 1.2865 1.39269 1.50185 1.61573 1.7347 1.8577 1.9822 2.10484 2.22103 2.32562 2.4128 2.47617 2.50933 
1.7587 1.97125 2.07888 2.07543 1.96015 1.73793 1.41869 1.01684 0.551455 0.0434166 -0.483533 -1.00617 -1.5023 -1.95106 -2.3361 -2.64458 -2.86942 -3.00854 -3.06473 -3.04526 -2.95997 -2.81899 -2.63024 -2.40052 -2.13666 -1.84712 -1.54056 -1.22592 -0.912756 -0.609763 -0.326191 -0.0701485 0.152687 0.341005 0.498446 0.630697 0.744606 0.846778 0.942765 1.03713 1.13281 1.23149 1.33354 1.43789 1.54258 1.64444 1.73956 1.82327 1.89017 1.93464 
2.08329 2.2961 2.39892 2.38516 2.25373 2.0094 1.66215 1.22667 0.722504 0.171144 -0.402814 -0.975296 -1.5232 -2.02466 -2.4624 -2.82245 -3.09672 -3.28234 -3.38132 -3.4005 -3.34952 -3.23867 -3.07611 -2.86837 -2.62185 -2.34461 -2.04503 -1.73193 -1.41504 -1.10361 -0.807766 -0.536649 -0.297902 -0.0957039 0.0712034 0.207071 0.318148 0.411068 0.491939 0.566224 0.638075 0.710552 0.785477 0.863339 0.943684 1.0248 1.10415 1.17831 1.24293 1.2933 
2.40467 2.61474 2.71122 2.68716 2.54117 2.27783 1.90703 1.44356 0.907299 0.320107 -0.29289 -0.907109 -1.49881 -2.04532 -2.52869 -2.93412 -3.25277 -3.48105 -3.62026 -3.67677 -3.65986 -3.57977 -3.44469 -3.26077 -3.03391 -2.77166 -2.48212 -2.17412 -1.85774 -1.5429 -1.2404 -0.960101 -0.710862 -0.499254 -0.326665 -0.190639 -0.0858024 -0.0056875 0.0562389 0.106262 0.149722 0.191039 0.233523 0.279276 0.329381 0.3837 0.441119 0.499519 0.55576 0.606099 
2.71783 2.92235 3.01106 2.97679 2.81791 2.53887 2.14958 1.66483 1.10463 0.490899 -0.15114 -0.796776 -1.42207 -2.00398 -2.52419 -2.96734 -3.32405 -3.59014 -3.76631 -3.85842 -3.87526 -3.82681 -3.72098 -3.56341 -3.35927 -3.11547 -2.83978 -2.54108 -2.22993 -1.91685 -1.61327 -1.32963 -1.07548 -0.858999 -0.684144 -0.550676 -0.454477 -0.389533 -0.349089 -0.326188 -0.31439 -0.307963 -0.302123 -0.29314 -0.278361 -0.256294 -0.226563 -0.189898 -0.148155 -0.104017 
3.01435 3.2105 3.29005 3.24596 3.07669 2.78678 2.38606 1.88907 1.31546 0.686688 0.0276204 -0.637347 -1.28446 -1.89071 -2.43769 -2.90978 -3.29727 -3.59556 -3.8048 -3.93035 -3.98043 -3.9645 -3.89 -3.76178 -3.58417 -3.36326 -3.10638 -2.82239 -2.52203 -2.21627 -1.9171 -1.63559 -1.38188 -1.16511 -0.991176 -0.862314 -0.776145 -0.727492 -0.709675 -0.715284 -0.736932 -0.76768 -0.801332 -0.832545 -0.857094 -0.871825 -0.874825 -0.865376 -0.843969 -0.812144 
3.28483 3.46988 3.53951 3.48734 3.31217 3.01844 2.61549 2.11714 1.54217 0.911189 0.248254 -0.422935 -1.07918 -1.69784 -2.26073 -2.75224 -3.16254 -3.48677 -3.72462 -3.88099 -3.96343 -3.98072 -3.93953 -3.84372 -3.69663 -3.50348 -3.27106 -3.00792 -2.72469 -2.43244 -2.14347 -1.8694 -1.6211 -1.40842 -1.23855 -1.11591 -1.04029 -1.00786 -1.01238 -1.04631 -1.10154 -1.17008 -1.24444 -1.31773 -1.3842 -1.43902 -1.47873 -1.50112 -1.50525 -1.49146 
3.52134 3.69361 3.75428 3.69781 3.52307 3.23402 2.8391 2.35101 1.78731 1.16736 0.514048 -0.149977 -0.802403 -1.42128 -1.98895 -2.49007 -2.91489 -3.25847 -3.52016 -3.70438 -3.81797 -3.86886 -3.8627 -3.80213 -3.68945 -3.52889 -3.32656 -3.09044 -2.83074 -2.55837 -2.28566 -2.02455 -1.78647 -1.582 -1.41934 -1.30446 -1.23941 -1.22219 -1.24755 -1.30816 -1.39552 -1.50083 -1.61547 -1.73112 -1.84057 -1.93738 -2.01652 -2.0743 -2.10831 -2.11762 
3.7179 3.8777 3.93223 3.87657 3.70942 3.43392 3.05736 2.59105 2.05096 1.45494 0.824366 0.180534 -0.455425 -1.06258 -1.62404 -2.12499 -2.55601 -2.91219 -3.19268 -3.40146 -3.54459 -3.62898 -3.65902 -3.63598 -3.56101 -3.43728 -3.26997 -3.06632 -2.8359 -2.58924 -2.33849 -2.09566 -1.87252 -1.68024 -1.52783 -1.42244 -1.3679 -1.36433 -1.40802 -1.49238 -1.60889 -1.74826 -1.90097 -2.05748 -2.20922 -2.34823 -2.46799 -2.56331 -2.63032 -2.66683 
3.87231 4.02168 4.0739 4.02458 3.87207 3.61857 3.27002 2.83612 2.33103 1.77087 1.17518 0.563672 -0.0439879 -0.628175 -1.17299 -1.66445 -2.0936 -2.45578 -2.75002 -2.97989 -3.15062 -3.26795 -3.33476 -3.35082 -3.31604 -3.23239 -3.10399 -2.93716 -2.74064 -2.52448 -2.30043 -2.08044 -1.87642 -1.69994 -1.56066 -1.46659 -1.42284 -1.43141 -1.49046 -1.59473 -1.73619 -1.90545 -2.09242 -2.28658 -2.47821 -2.65794 -2.81787 -2.95139 -3.05319 -3.11981 
3.9848 4.12679 4.18082 4.14302 4.01147 3.78735 3.47517 3.08289 2.62272 2.10883 1.55875 0.990341 0.421579 -0.129475 -0.648165 -1.12154 -1.54134 -1.90327 -2.20637 -2.45381 -2.64995 -2.79918 -2.90263 -2.95846 -2.96531 -2.92378 -2.83681 -2.70972 -2.55032 -2.36802 -2.17407 -1.98026 -1.79851 -1.6406 -1.51672 -1.43555 -1.40314 -1.42279 -1.49438 -1.61435 -1.77575 -1.96959 -2.18563 -2.41266 -2.64011 -2.8574 -3.05538 -3.22615 -3.36304 -3.46138 
4.05667 4.19487 4.25459 4.23274 4.1272 3.93825 3.66897 3.32558 2.91823 2.45902 1.96331 1.44693 0.925961 0.416669 -0.0677352 -0.515556 -0.91939 -1.27545 -1.58287 -1.84444 -2.06355 -2.24308 -2.38225 -2.47747 -2.52608 -2.52725 -2.48268 -2.39658 -2.27578 -2.12901 -1.96694 -1.80107 -1.64329 -1.50547 -1.3982 -1.33071 -1.30982 -1.33976 -1.42162 -1.55337 -1.72946 -1.94187 -2.1807 -2.43452 -2.69219 -2.94224 -3.1745 -3.37992 -3.55063 -3.68085 
4.0899 4.2281 4.29698 4.29445 4.21853 4.06875 3.84689 3.55751 3.20865 2.81033 2.37559 1.91809 1.45187 0.991199 0.547664 0.131517 -0.25085 -0.596271 -0.90405 -1.17656 -1.41613 -1.62391 -1.79709 -1.93037 -2.01967 -2.06272 -2.05996 -2.0145 -1.93212 -1.82082 -1.69069 -1.55288 -1.41917 -1.30149 -1.21072 -1.15656 -1.14646 -1.18545 -1.27556 -1.4158 -1.60186 -1.82686 -2.08176 -2.35547 -2.6367 -2.91345 -3.17482 -3.41089 -3.61278 -3.77376 
4.08624 4.22826 4.30931 4.32843 4.28414 4.17555 4.0034 3.77067 3.48344 3.14962 2.77989 2.38568 1.97883 1.57148 1.17346 0.793409 0.4366 0.10549 -0.19942 -0.480044 -0.737531 -0.971057 -1.17577 -1.34467 -1.47231 -1.55499 -1.5919 -1.58501 -1.53911 -1.46146 -1.36152 -1.25011 -1.13885 -1.03971 -0.963814 -0.921235 -0.920007 -0.965849 -1.06157 -1.2071 -1.39899 -1.63126 -1.89583 -2.18232 -2.47986 -2.77639 -3.06065 -3.3222 -3.5514 -3.74086 
4.04729 4.19667 4.29261 4.33487 4.32284 4.25565 4.13333 3.95757 3.73258 3.46428 3.16103 2.83196 2.48668 2.13509 1.78512 1.44375 1.11501 0.800617 0.500889 0.214458 -0.0584628 -0.314885 -0.547952 -0.749168 -0.911725 -1.03053 -1.10358 -1.13174 -1.11882 -1.07135 -0.998208 -0.909872 -0.817817 -0.73401 -0.669809 -0.635634 -0.640034 -0.689352 -0.787115 -0.934047 -1.12751 -1.36227 -1.63089 -1.92371 -2.23054 -2.53978 -2.8403 -3.12153 -3.37353 -3.5884 
3.97377 4.13406 4.24732 4.31375 4.33359 4.30648 4.23218 4.11144 3.94689 3.74258 3.50465 3.23998 2.95592 2.66009 2.3585 2.05636 1.75648 1.45981 1.16656 0.876051 0.590105 0.313938 0.0562041 -0.173277 -0.366405 -0.516787 -0.621246 -0.679623 -0.694793 -0.672608 -0.621382 -0.551279 -0.473641 -0.400455 -0.343296 -0.312928 -0.318382 -0.366585 -0.46173 -0.605268 -0.79534 -1.02746 -1.2948 -1.58828 -1.8983 -2.21388 -2.52441 -2.8197 -3.08986 -3.32667 
3.8646 4.0401 4.17335 4.26486 4.31566 4.32618 4.29646 4.22677 4.11849 3.9741 3.79768 3.59397 3.36811 3.1255 2.8702 2.6057 2.33357 2.05412 1.76755 1.47411 1.17749 0.88496 0.606637 0.353545 0.134955 -0.0415371 -0.17167 -0.254321 -0.291507 -0.288447 -0.252955 -0.194919 -0.125573 -0.0569569 -0.000869103 0.0315708 0.0308579 -0.0104974 -0.0973381 -0.231798 -0.412759 -0.636476 -0.896831 -1.18537 -1.49309 -1.80963 -2.12504 -2.42971 -2.71397 -2.9694 
3.71646 3.91248 4.06924 4.18735 4.26841 4.31375 4.32424 4.30019 4.24222 4.15158 4.03057 3.88198 3.7089 3.51456 3.30122 3.07068 2.82342 2.55921 2.27849 1.98271 1.67761 1.37217 1.07755 0.805841 0.567365 0.370811 0.221428 0.121217 0.0689377 0.0599392 0.0868396 0.139982 0.208197 0.279349 0.341395 0.382832 0.39367 0.365856 0.293887 0.174961 0.00945624 -0.199611 -0.446862 -0.724608 -1.0246 -1.33726 -1.65338 -1.96382 -2.25902 -2.53035 
3.52608 3.74803 3.93243 4.07944 4.19082 4.26858 4.31463 4.32995 4.31496 4.27015 4.1964 4.09488 3.96681 3.81352 3.63556 3.43329 3.20625 2.95393 2.67731 2.37941 2.06787 1.75289 1.44634 1.16119 0.908696 0.698509 0.536754 0.426223 0.366348 0.352982 0.379096 0.435207 0.510165 0.591681 0.667442 0.725514 0.755401 0.748462 0.698508 0.602051 0.458701 0.270727 0.042731 -0.218457 -0.505504 -0.809795 -1.12284 -1.43581 -1.73909 -2.02394 
3.2912 3.54389 3.75986 3.93843 4.08099 4.18973 4.26738 4.31587 4.33602 4.3281 4.2921 4.22792 4.13529 4.01393 3.86297 3.68156 3.46865 3.22376 2.94885 2.64877 2.33265 2.01128 1.69702 1.40357 1.14296 0.92565 0.758541 0.645107 0.585354 0.575565 0.60898 0.676231 0.766132 0.866182 0.963753 1.04643 1.10318 1.12473 1.10414 1.03721 0.92272 0.762123 0.559181 0.319769 0.0502297 -0.241741 -0.548153 -0.860384 -1.16881 -1.46462 
3.01179 3.29884 3.54948 3.76184 3.93659 4.07554 4.18178 4.25809 4.30595 4.32584 4.31742 4.27985 4.21184 4.11191 3.97814 3.80893 3.603 3.36039 3.08453 2.78205 2.46292 2.13803 1.82007 1.52327 1.26027 1.04221 0.876644 0.767618 0.71561 0.717257 0.765982 0.85247 0.965444 1.09212 1.21952 1.33467 1.42595 1.4834 1.49928 1.46858 1.38916 1.26156 1.08861 0.875182 0.626852 0.350677 0.0542756 -0.253957 -0.564487 -0.868488 
2.69114 3.01457 3.30158 3.54893 3.75624 3.92459 4.05688 4.15642 4.22545 4.26482 4.27412 4.25229 4.19757 4.10788 3.98077 3.81442 3.60787 3.36231 3.08298 2.7778 2.45688 2.13105 1.81309 1.51756 1.25757 1.04479 0.88728 0.789565 0.752486 0.772959 0.844506 0.957799 1.10141 1.26221 1.4268 1.58162 1.71435 1.8143 1.87281 1.884 1.84468 1.75436 1.61494 1.43056 1.20639 0.949105 0.665887 0.364814 0.0552354 -0.254 
2.33468 2.69473 3.01823 3.30041 3.53964 3.73595 3.89171 4.01025 4.09449 4.14601 4.16438 4.1484 4.09627 4.00595 3.87516 3.70255 3.4882 3.23507 2.95016 2.6419 2.32024 1.99577 1.68119 1.39117 1.13915 0.937137 0.793599 0.713438 0.697751 0.743654 0.844687 0.991448 1.1723 1.37368 1.58175 1.78221 1.96205 2.10972 2.21554 2.27263 2.27665 2.22624 2.12265 1.96959 1.77201 1.53623 1.26902 0.978104 0.672563 0.361228 
