-2.5
-4.2684 -4.31412 -4.32591 -4.30609 -4.25805 -4.18627 -4.09588 -3.99216 -3.88016 -3.7636 -3.64484 -3.52404 -3.3993 -3.26731 -3.1237 -2.96538 -2.79201 -2.6057 -2.40665 -2.19028 -1.95051 -1.68121 -1.3781 -1.04036 -0.66973 -0.27224 0.143605 0.56666 0.982958 1.37824 1.73678 2.04383 2.28564 2.44975 2.52668 2.5096 2.39533 2.18424 1.88118 1.49444 1.03697 0.523818 -0.0286097 -0.60248 -1.18109 -1.74612 -2.28073 -2.769 -3.19571 -3.54964 
-4.19164 -4.26866 -4.31479 -4.33114 -4.31998 -4.28427 -4.22749 -4.15319 -4.06465 -3.96411 -3.85264 -3.7296 -3.59286 -3.43955 -3.26664 -3.07342 -2.86237 -2.63725 -2.39867 -2.14225 -1.86239 -1.55352 -1.212 -0.837781 -0.433253 -0.00512793 0.437559 0.883257 1.31772 1.72662 2.09432 2.40638 2.64949 2.8118 2.8845 2.86149 2.7403 2.52183 2.21127 1.8169 1.35118 0.82813 0.263007 -0.326834 -0.924511 -1.51126 -2.06976 -2.58356 -3.03682 -3.41746 
-4.08637 -4.19077 -4.26767 -4.3162 -4.33735 -4.33282 -4.30465 -4.25482 -4.18509 -4.09632 -3.98851 -3.86044 -3.70994 -3.53496 -3.33415 -3.10949 -2.86595 -2.60839 -2.33767 -2.04961 -1.739 -1.40062 -1.03126 -0.63131 -0.203524 0.245043 0.705149 1.16515 1.6108 2.02798 2.40132 2.71684 2.96172 3.12472 3.19759 3.17479 3.05419 2.83685 2.52769 2.13427 1.66789 1.14141 0.569466 -0.0305871 -0.641635 -1.24463 -1.8219 -2.35654 -2.8322 -3.23616 
-3.95542 -4.08101 -4.18352 -4.25942 -4.3077 -4.32874 -4.32337 -4.29228 -4.2359 -4.15395 -4.04563 -3.90936 -3.7433 -3.54655 -3.31994 -3.06811 -2.79785 -2.51467 -2.21972 -1.909 -1.57752 -1.22025 -0.834135 -0.419696 0.0202627 0.478692 0.94647 1.41216 1.86184 2.28177 2.65709 2.97436 3.22132 3.38726 3.46439 3.4474 3.33419 3.12542 2.82514 2.43955 1.97862 1.45449 0.881605 0.277341 -0.341079 -0.954501 -1.54498 -2.09527 -2.5887 -3.01202 
-3.80275 -3.94157 -4.06256 -4.15969 -4.22928 -4.26974 -4.28078 -4.26205 -4.21292 -4.13229 -4.01884 -3.871 -3.68763 -3.46949 -3.21983 -2.94559 -2.65463 -2.35286 -2.04176 -1.71751 -1.3752 -1.00979 -0.618099 -0.200495 0.240496 0.698176 1.16386 1.62663 2.07312 2.49025 2.86378 3.18089 3.42991 3.60055 3.68525 3.67866 3.5782 3.38363 3.09761 2.72501 2.27476 1.75855 1.19064 0.588271 -0.0314317 -0.649222 -1.24701 -1.80744 -2.31359 -2.75188 
-3.6331 -3.77621 -3.90696 -4.01743 -4.10133 -4.1545 -4.17505 -4.16176 -4.11331 -4.0281 -3.90468 -3.74193 -3.5399 -3.3015 -3.03226 -2.74061 -2.43498 -2.12159 -1.80236 -1.47357 -1.1303 -0.767271 -0.380976 0.0287148 0.459849 0.906413 1.36046 1.81185 2.24806 2.6568 3.02461 3.33932 3.58978 3.76596 3.86029 3.86694 3.78246 3.60541 3.33724 2.98177 2.54704 2.04412 1.48695 0.892488 0.277687 -0.338239 -0.93728 -1.5021 -2.01564 -2.46415 
-3.45075 -3.58887 -3.71985 -3.83444 -3.92429 -3.98258 -4.00531 -3.99026 -3.93567 -3.83984 -3.70169 -3.52105 -3.29973 -3.04302 -2.75803 -2.45389 -2.13934 -1.82101 -1.50123 -1.17643 -0.841526 -0.490869 -0.120358 0.27091 0.681834 1.10739 1.54065 1.9725 2.39145 2.78616 3.144 3.45345 3.70374 3.8849 3.98901 4.00955 3.94214 3.78438 3.53672 3.202 2.78723 2.30269 1.76178 1.18107 0.577286 -0.0306276 -0.624894 -1.18825 -1.70371 -2.15774 
-3.25924 -3.38323 -3.50467 -3.61349 -3.69985 -3.75476 -3.77192 -3.74773 -3.68021 -3.56796 -3.41077 -3.21007 -2.96987 -2.69733 -2.40035 -2.08836 -1.7703 -1.45318 -1.13979 -0.826759 -0.508769 -0.17963 0.165538 0.528662 0.909747 1.30503 1.70882 2.11324 2.50802 2.88279 3.22579 3.52607 3.77313 3.95688 4.06903 4.10245 4.05207 3.91465 3.68962 3.37877 2.98794 2.52643 2.00698 1.44563 0.858697 0.264727 -0.318813 -0.874926 -1.38714 -1.84298 
-3.06144 -3.16273 -3.26517 -3.35827 -3.43126 -3.47368 -3.47719 -3.43663 -3.34984 -3.21612 -3.03673 -2.81517 -2.55742 -2.27162 -1.96617 -1.65065 -1.33398 -1.0235 -0.72257 -0.428089 -0.134474 0.165098 0.476445 0.802726 1.14525 1.50173 1.86789 2.23721 2.60074 2.94922 3.27173 3.55787 3.79737 3.98017 4.09772 4.14243 4.10852 3.99191 3.79098 3.50639 3.14276 2.7083 2.21493 1.67803 1.11339 0.538994 -0.0281449 -0.571748 -1.07673 -1.5323 
-2.85853 -2.92938 -3.00401 -3.07192 -3.12189 -3.14264 -3.12446 -3.06083 -2.94937 -2.7905 -2.58745 -2.34565 -2.07227 -1.77587 -1.46519 -1.14998 -0.838941 -0.539769 -0.256396 0.0138557 0.2768 0.539933 0.810104 1.09182 1.38786 1.69763 2.01841 2.34524 2.67067 2.98657 3.28298 3.55007 3.77787 3.95637 4.07679 4.13104 4.11265 4.01665 3.84037 3.58336 3.249 2.84439 2.38058 1.87229 1.33468 0.784938 0.239215 -0.28785 -0.783234 -1.23766 
-2.65097 -2.68478 -2.72388 -2.75811 -2.77626 -2.76688 -2.71968 -2.62734 -2.48746 -2.30183 -2.07554 -1.81518 -1.52849 -1.22434 -0.911649 -0.600208 -0.298638 -0.0147456 0.246908 0.488349 0.715544 0.936662 1.15957 1.39025 1.63312 1.88955 2.15867 2.43727 2.71942 2.99811 3.26434 3.50881 3.72181 3.89336 4.0144 4.07635 4.07203 3.99562 3.8434 3.61384 3.30917 2.93545 2.50289 2.02557 1.51804 0.996496 0.475419 -0.0329418 -0.517673 -0.970725 
-2.4377 -2.42919 -2.42642 -2.41988 -2.39885 -2.35233 -2.27025 -2.14532 -1.9755 -1.76353 -1.5156 -1.23889 -0.941504 -0.632555 -0.321087 -0.0168539 0.271641 0.536687 0.773195 0.982317 1.16993 1.34473 1.51574 1.69075 1.8761 2.07529 2.28938 2.51677 2.75298 2.99202 3.22573 3.44531 3.6413 3.80373 3.92327 3.99089 3.99872 3.94011 3.81035 3.6069 3.3309 2.98748 2.58609 2.14021 1.66372 1.17139 0.675409 0.185669 -0.288631 -0.740438 
-2.21685 -2.1623 -2.11299 -2.06047 -1.99495 -1.90651 -1.78607 -1.62712 -1.42792 -1.19133 -0.923971 -0.633475 -0.328203 -0.0175793 0.289372 0.583119 0.855312 1.09845 1.30705 1.4813 1.62677 1.75277 1.86979 1.98765 2.11465 2.25621 2.41504 2.59095 2.78077 2.97943 3.17961 3.37298 3.55034 3.70178 3.81774 3.88876 3.90635 3.86308 3.7533 3.57355 3.32401 3.00896 2.63724 2.22171 1.77528 1.31068 0.837715 0.364454 -0.101082 -0.552492 
-1.98672 -1.88429 -1.786 -1.68476 -1.57223 -1.44015 -1.28089 -1.08877 -0.861979 -0.603082 -0.318991 -0.017595 0.292442 0.601552 0.900882 1.18111 1.43416 1.65283 1.83145 1.96947 2.07229 2.15009 2.21482 2.27797 2.34935 2.43596 2.54188 2.66821 2.81294 2.97193 3.13863 3.30525 3.46287 3.60168 3.71197 3.78389 3.8084 3.77737 3.68433 3.52498 3.29865 3.00893 2.6642 2.27661 1.85749 1.41723 0.963636 0.503495 0.0440776 -0.408516 
-1.7456 -1.59563 -1.44846 -1.29875 -1.13989 -0.965472 -0.76922 -0.546095 -0.294307 -0.0160692 0.281708 0.590877 0.902512 1.20709 1.49594 1.75991 1.99127 2.18333 2.33088 2.43331 2.49605 2.52982 2.54738 2.56127 2.58239 2.61897 2.67627 2.7565 2.85876 2.97981 3.11389 3.25377 3.39089 3.51558 3.61805 3.68818 3.71644 3.69409 3.61394 3.47099 3.2639 2.99572 2.67449 2.31131 1.91544 1.4951 1.05661 0.60586 0.149711 -0.305794 
-1.49419 -1.29971 -1.10682 -0.912099 -0.71058 -0.497416 -0.267472 -0.0164578 0.257068 0.551234 0.859316 1.17294 1.48309 1.78026 2.05594 2.3013 2.50905 2.6734 2.79062 2.86082 2.88916 2.88599 2.86411 2.83655 2.81484 2.80815 2.82269 2.86165 2.92522 3.01098 3.11403 3.22771 3.3439 3.45316 3.54569 3.61118 3.63973 3.6221 3.55053 3.41945 3.22703 2.97607 2.67415 2.3309 1.95346 1.54829 1.1206 0.675727 0.220348 -0.239393 
-1.23585 -1.00261 -0.76984 -0.535725 -0.296847 -0.04975 0.209592 0.48456 0.77616 1.08264 1.39743 1.71207 2.01759 2.3046 2.56471 2.78954 2.97271 3.11008 3.19998 3.24348 3.24507 3.21387 3.16199 3.10233 3.04665 3.00471 2.98349 2.98704 3.01652 3.07037 3.14455 3.23302 3.32815 3.42083 3.50132 3.55925 3.58445 3.56733 3.4997 3.37561 3.19299 2.95455 2.66727 2.33905 1.9751 1.58055 1.15985 0.717997 0.261634 -0.202904 
-0.976917 -0.712208 -0.446578 -0.179654 0.0905242 0.365993 0.649596 0.943805 1.24909 1.56371 1.88127 2.19334 2.49111 2.76535 3.00783 3.21105 3.37028 3.48355 3.55096 3.57446 3.55786 3.5085 3.43702 3.35558 3.27572 3.20748 3.15835 3.13313 3.13385 3.15979 3.20775 3.27241 3.34664 3.42176 3.48821 3.53566 3.5538 3.53282 3.46431 3.34215 3.16426 2.9335 2.65601 2.33787 1.98279 1.59492 1.17819 0.737413 0.279287 -0.189635 
-0.724024 -0.435327 -0.144053 0.148757 0.443684 0.741382 1.04351 1.3516 1.66553 1.98347 2.29923 2.60466 2.89113 3.14974 3.37293 3.55473 3.69254 3.78619 3.83705 3.84769 3.82151 3.76398 3.68359 3.59114 3.49744 3.41243 3.34388 3.29716 3.27506 3.27766 3.3026 3.34525 3.39911 3.45598 3.50655 3.54067 3.54805 3.51883 3.44458 3.31928 3.14114 2.91321 2.64071 2.32806 1.97787 1.59356 1.17876 0.738181 0.278604 -0.19322 
-0.481272 -0.175758 0.134169 0.446124 0.759347 1.07314 1.38798 1.70442 2.02171 2.33781 2.64675 2.94077 3.2117 3.45129 3.65355 3.81482 3.93451 4.01366 4.05425 4.05908 4.0313 3.97487 3.89586 3.80298 3.70582 3.61378 3.53462 3.47405 3.43549 3.41974 3.42522 3.44806 3.48238 3.52052 3.55358 3.57167 3.5647 3.52295 3.43822 3.30486 3.12174 2.89209 2.62014 2.30907 1.96062 1.57778 1.16393 0.723771 0.264149 -0.208045 
-0.252275 0.0635024 0.385645 0.710493 1.03598 1.3601 1.68214 2.00167 2.31723 2.62653 2.92371 3.20153 3.45243 3.66954 3.84932 3.99071 4.09488 4.16381 4.19976 4.20525 4.18287 4.13551 4.06704 3.98359 3.89294 3.80347 3.72256 3.656 3.60764 3.57887 3.56886 3.57444 3.59039 3.60967 3.62384 3.62346 3.59877 3.54043 3.44076 3.29479 3.10239 2.86696 2.59184 2.27926 1.93042 1.54798 1.1352 0.696755 0.239526 -0.229539 
-0.0396475 0.280737 0.609509 0.9418 1.27428 1.60367 1.92806 2.24603 2.55538 2.85344 3.13448 3.3917 3.61858 3.81046 3.96659 4.08825 4.17818 4.23932 4.27423 4.2851 4.27367 4.24165 4.19112 4.12562 4.05053 3.97264 3.89852 3.83374 3.7823 3.74604 3.72473 3.71587 3.71491 3.71548 3.70968 3.68864 3.64317 3.56454 3.4459 3.28335 3.07802 2.8335 2.55233 2.23615 1.88579 1.50374 1.09317 0.658717 0.20723 -0.254389 
0.154181 0.474584 0.805432 1.14071 1.47586 1.80637 2.12917 2.4418 2.74129 3.02453 3.28582 3.51893 3.71891 3.88384 4.01553 4.11729 4.19327 4.24732 4.28244 4.30076 4.30336 4.29075 4.26333 4.22227 4.17027 4.11192 4.05247 3.99682 3.94883 3.91057 3.88225 3.86196 3.84579 3.82804 3.80148 3.75796 3.68904 3.58689 3.44587 3.26357 3.04251 2.78644 2.49734 2.1765 1.82454 1.44385 1.03757 0.610247 0.168608 -0.280593 
0.326544 0.643571 0.973103 1.30804 1.64265 1.97122 2.28952 2.59407 2.8811 3.14695 3.38597 3.59272 3.76436 3.90164 4.00857 4.09016 4.15181 4.19826 4.23303 4.25842 4.27521 4.28312 4.28114 4.26832 4.24469 4.21214 4.17399 4.134 4.09548 4.06042 4.02929 4.00061 3.97106 3.93564 3.88785 3.82044 3.72593 3.59772 3.43177 3.22758 2.98906 2.72005 2.4222 2.09667 1.74402 1.3666 0.96748 0.551102 0.123976 -0.307404 
0.475361 0.786879 1.11294 1.44541 1.77744 2.10216 2.41421 2.70907 2.98214 3.22919 3.4446 3.62415 3.76726 3.87706 3.9593 4.02044 4.06696 4.10444 4.13704 4.16735 4.1962 4.22292 4.24559 4.26161 4.26871 4.26584 4.25382 4.23467 4.21068 4.18339 4.15324 4.11902 4.0779 4.02557 3.95636 3.86403 3.74238 3.58637 3.39397 3.16691 2.91032 2.62807 2.32174 1.99251 1.64099 1.26954 0.881133 0.480054 0.0725052 -0.335388 
0.598398 0.903561 1.22524 1.55436 1.88298 2.20312 2.50833 2.79306 3.05186 3.2799 3.47172 3.62464 3.74022 3.82346 3.88155 3.9221 3.95254 3.97923 4.00698 4.03887 4.076 4.11763 4.16141 4.20369 4.24041 4.26795 4.28429 4.28915 4.28321 4.26715 4.24099 4.20362 4.15254 4.0841 3.99351 3.87577 3.72618 3.54167 3.32267 3.07308 2.79898 2.50434 2.19086 1.85989 1.51215 1.15002 0.776376 0.395285 0.0125476 -0.366178 
0.694064 0.993269 1.3109 1.63695 1.9625 2.27848 2.57738 2.85264 3.09797 3.30792 3.47748 3.60554 3.69549 3.75376 3.78862 3.80864 3.82203 3.83587 3.85566 3.88506 3.9256 3.9768 4.0362 4.0996 4.16178 4.21709 4.26085 4.29014 4.3036 4.30055 4.28021 4.24123 4.1813 4.09738 3.98562 3.84244 3.66495 3.45249 3.20816 2.93765 2.64774 2.34263 2.02433 1.69443 1.35383 1.00492 0.650467 0.294244 -0.0584253 -0.402436 
0.761151 1.05596 1.37099 1.6954 2.01929 2.33258 2.62674 2.89423 3.1279 3.32181 3.47156 3.57753 3.64447 3.67989 3.69284 3.69263 3.68812 3.68705 3.69558 3.71802 3.7565 3.81096 3.87919 3.9568 4.03791 4.11546 4.18255 4.2336 4.26495 4.27434 4.25985 4.21953 4.15107 4.05192 3.91926 3.7511 3.54675 3.30827 3.04122 2.75255 2.44962 2.13701 1.81711 1.49187 1.16235 0.830976 0.50035 0.173919 -0.143553 -0.447591 
0.798828 1.09186 1.40677 1.73192 2.05652 2.36954 2.66146 2.9238 3.14856 3.32948 3.46285 3.55027 3.59745 3.61262 3.60538 3.58556 3.56255 3.54464 3.53867 3.54961 3.58028 3.63122 3.70066 3.78436 3.87619 3.96823 4.05196 4.11934 4.16419 4.18258 4.17153 4.12833 4.05043 3.93571 3.7824 3.59033 3.3613 3.10004 2.81404 2.51106 2.19889 1.88264 1.56515 1.24873 0.934674 0.625375 0.323252 0.0313755 -0.246114 -0.505431 
0.806853 1.10159 1.4197 1.74882 2.07731 2.39323 2.68617 2.94672 3.16612 3.33787 3.45898 3.53193 3.56302 3.56091 3.53549 3.49696 3.45509 3.41865 3.39512 3.39011 3.40721 3.44766 3.51031 3.59132 3.68465 3.78195 3.87364 3.94981 4.00169 4.0233 4.01069 3.96079 3.87088 3.73929 3.56538 3.35098 3.1005 2.8207 2.52028 2.20755 1.89067 1.57531 1.26483 0.961872 0.667935 0.385372 0.116372 -0.136411 -0.369519 -0.579905 
0.785276 1.08587 1.41116 1.74808 2.08422 2.40682 2.70458 2.96728 3.18545 3.3525 3.46601 3.52897 3.54798 3.53185 3.49057 3.43454 3.37378 3.31746 3.27361 3.2485 3.24648 3.26959 3.31739 3.38668 3.47172 3.56414 3.6538 3.72952 3.78042 3.79814 3.77746 3.7152 3.60905 3.45818 3.2634 3.02872 2.7606 2.46693 2.15699 1.83946 1.52289 1.21341 0.91486 0.630202 0.361106 0.109828 -0.121709 -0.331314 -0.516255 -0.674258 
0.734355 1.04538 1.38223 1.73117 2.07912 2.41252 2.71931 2.98848 3.20997 3.37719 3.48802 3.5457 3.55682 3.53012 3.47552 3.40343 3.32403 3.24679 3.18023 3.13122 3.1049 3.10411 3.12922 3.1778 3.24466 3.32173 3.3987 3.46368 3.50439 3.51034 3.47464 3.39393 3.26677 3.09378 2.8778 2.62488 2.34263 2.03935 1.72461 1.40728 1.0961 0.79757 0.515927 0.25438 0.0147059 -0.200997 -0.391125 -0.553989 -0.687629 -0.790566 
0.654255 0.980432 1.33335 1.6987 2.06276 2.41126 2.73144 3.01162 3.24124 3.41365 3.52687 3.58406 3.59156 3.55784 3.49258 3.40609 3.30858 3.2097 3.11842 3.04215 2.98678 2.95598 2.95097 2.97022 3.00926 3.06059 3.11411 3.15773 3.17843 3.16426 3.10673 3.00209 2.85003 2.65321 2.41649 2.14729 1.85367 1.54434 1.22899 0.916353 0.615261 0.332412 0.0723332 -0.161643 -0.367719 -0.544042 -0.689367 -0.802586 -0.882572 -0.928618 
0.545079 0.890907 1.26425 1.65022 2.03455 2.40233 2.74022 3.03595 3.27853 3.46119 3.5818 3.64321 3.65131 3.61414 3.54099 3.44194 3.3271 3.20625 3.08869 2.98233 2.89378 2.82751 2.78564 2.76763 2.76986 2.78567 2.80552 2.81757 2.80871 2.76632 2.68084 2.54813 2.36917 2.14862 1.89268 1.60945 1.30721 0.995017 0.682651 0.378609 0.0916747 -0.171404 -0.405944 -0.608571 -0.777615 -0.911603 -1.0097 -1.07136 -1.09615 -1.08407 
0.406363 0.775816 1.17345 1.58385 1.99226 2.38324 2.7429 3.05857 3.31882 3.5166 3.64939 3.71954 3.73232 3.69517 3.61688 3.50718 3.37601 3.23315 3.08818 2.94943 2.82419 2.71773 2.63308 2.57078 2.52819 2.49973 2.47673 2.44809 2.40121 2.3236 2.20551 2.04265 1.83685 1.59399 1.32095 1.02622 0.718344 0.406502 0.100477 -0.191334 -0.460436 -0.700229 -0.905939 -1.0743 -1.20382 -1.2934 -1.34253 -1.35098 -1.31893 -1.24715 
0.237637 0.63371 1.05863 1.4965 1.93214 2.34965 2.73474 3.07433 3.35655 3.5739 3.72328 3.80633 3.82759 3.79376 3.71303 3.59467 3.44836 3.28382 3.11083 2.93806 2.77348 2.6231 2.49092 2.3786 2.28466 2.20482 2.13163 2.05513 1.96393 1.84642 1.69345 1.5006 1.26953 1.00653 0.718901 0.415463 0.105041 -0.20316 -0.499565 -0.775897 -1.02401 -1.23754 -1.41183 -1.54382 -1.63204 -1.67541 -1.67353 -1.62654 -1.53551 -1.4023 
0.038169 0.462492 0.916501 1.38383 1.84897 2.29563 2.70918 3.0761 3.38399 3.62477 3.79459 3.89423 3.92738 3.8999 3.81929 3.69428 3.53422 3.34868 3.14758 2.93991 2.73425 2.5374 2.35431 2.18791 2.03799 1.90183 1.77354 1.64484 1.5061 1.34709 1.15942 0.938134 0.684018 0.403404 0.104028 -0.205039 -0.51482 -0.81626 -1.09998 -1.35792 -1.58232 -1.76717 -1.908 -2.00165 -2.0463 -2.04076 -1.98495 -1.87977 -1.72759 -1.53166 
-0.192217 0.260166 0.743472 1.2409 1.73667 2.21417 2.65833 3.05513 3.39155 3.65886 3.85227 3.9716 4.01958 4.00115 3.92304 3.7934 3.62116 3.41572 3.18709 2.94453 2.69723 2.4528 2.21721 1.99476 1.78671 1.59217 1.40722 1.22559 1.03953 0.840083 0.619415 0.372003 0.097706 -0.197437 -0.505458 -0.816995 -1.12311 -1.4149 -1.68313 -1.92008 -2.11847 -2.27258 -2.37775 -2.43028 -2.42797 -2.36999 -2.25702 -2.09117 -1.87635 -1.61741 
-0.451505 0.0264274 0.537205 1.06366 1.58975 2.09841 2.57407 3.00211 3.36882 3.66471 3.88393 4.02527 4.0904 4.08331 4.0099 3.87768 3.69514 3.47148 3.21676 2.94052 2.65259 2.36141 2.07408 1.79643 1.53135 1.28008 1.04076 0.808991 0.578616 0.34167 0.0908003 -0.17977 -0.470917 -0.777154 -1.09051 -1.40141 -1.70095 -1.98034 -2.23066 -2.44455 -2.615 -2.73605 -2.80238 -2.80998 -2.75683 -2.64294 -2.47018 -2.24213 -1.96447 -1.64372 
-0.735645 -0.236788 0.297532 0.850019 1.40437 1.94287 2.44934 2.90852 3.30593 3.63123 3.87747 4.04228 4.12626 4.13237 4.06569 3.93304 3.74248 3.50299 3.22469 2.91745 2.59172 2.25694 1.92147 1.59274 1.27535 0.972436 0.683904 0.406903 0.136737 -0.13365 -0.411061 -0.701249 -1.00573 -1.31956 -1.63478 -1.94189 -2.23203 -2.49654 -2.72689 -2.91585 -3.056 -3.14065 -3.16408 -3.1226 -3.0149 -2.84228 -2.60808 -2.31757 -1.97828 -1.59846 
-1.03794 -0.523941 0.0286077 0.60248 1.18109 1.74612 2.28075 2.76906 3.19587 3.54994 3.82309 4.01182 4.11559 4.13633 4.07828 3.94759 3.75191 3.49997 3.20206 2.86846 2.51033 2.13809 1.76131 1.38885 1.02678 0.679722 0.348982 0.0331249 -0.271251 -0.570236 -0.86994 -1.17595 -1.49016 -1.80812 -2.12196 -2.42229 -2.70044 -2.94794 -3.15646 -3.31823 -3.42494 -3.46933 -3.4459 -3.35177 -3.1868 -2.95389 -2.65811 -2.3065 -1.90851 -1.47404 
-1.35129 -0.828133 -0.263007 0.326834 0.924511 1.51126 2.06976 2.58356 3.03682 3.41746 3.71616 3.92821 4.052 4.08839 4.04083 3.91485 3.71769 3.45799 3.14624 2.79315 2.4106 2.00976 1.60108 1.19453 0.797274 0.415163 0.0506791 -0.296439 -0.628454 -0.950541 -1.26808 -1.58633 -1.90729 -2.22678 -2.53703 -2.82862 -3.09302 -3.32192 -3.50659 -3.63824 -3.70793 -3.70846 -3.63493 -3.4857 -3.26209 -2.96887 -2.61296 -2.20325 -1.75106 -1.26789 
-1.66789 -1.14141 -0.569466 0.0305871 0.641635 1.24463 1.8219 2.35654 2.8322 3.23616 3.55801 3.79196 3.93535 3.98808 3.95286 3.83468 3.64057 3.3792 3.06121 2.69755 2.30054 1.88184 1.45249 1.02317 0.60181 0.195176 -0.19334 -0.563069 -0.915325 -1.25447 -1.58518 -1.91228 -2.23763 -2.55714 -2.86299 -3.14559 -3.39632 -3.60626 -3.76553 -3.86444 -3.89411 -3.84805 -3.72249 -3.51727 -3.23535 -2.88351 -2.47061 -2.00741 -1.50704 -0.982444 
-1.97862 -1.45449 -0.881605 -0.277341 0.341079 0.954501 1.54498 2.09527 2.5887 3.01202 3.35398 3.60779 3.76987 3.83936 3.81844 3.7118 3.52635 3.27069 2.95542 2.59151 2.19136 1.76681 1.32916 0.88948 0.456164 0.0365379 -0.365379 -0.748238 -1.11263 -1.46225 -1.80114 -2.13363 -2.46131 -2.77993 -3.08154 -3.35634 -3.59493 -3.78697 -3.92103 -3.98676 -3.97564 -3.88233 -3.7047 -3.44455 -3.10668 -2.69987 -2.23495 -1.72451 -1.18338 -0.625815 
-2.27476 -1.75855 -1.19064 -0.588271 0.0314317 0.649222 1.24701 1.80744 2.31359 2.75188 3.11042 3.38165 3.56133 3.64818 3.64415 3.55368 3.38343 3.14173 2.83888 2.48563 2.09421 1.67632 1.24325 0.806116 0.373461 -0.04714 -0.451335 -0.837366 -1.20535 -1.55846 -1.90022 -2.23447 -2.56242 -2.87949 -3.17753 -3.44621 -3.67471 -3.85078 -3.96164 -3.99643 -3.94703 -3.80914 -3.58235 -3.27074 -2.88131 -2.42505 -1.9147 -1.36465 -0.791298 -0.210042 
-2.54704 -2.04412 -1.48695 -0.892488 -0.277687 0.338239 0.93728 1.5021 2.01564 2.46414 2.83538 3.12144 3.31788 3.42324 3.43924 3.36996 3.22165 3.0022 2.72145 2.3897 2.01873 1.6199 1.20418 0.782421 0.363041 -0.0464705 -0.441714 -0.820791 -1.18359 -1.53297 -1.87205 -2.20423 -2.53022 -2.84506 -3.14021 -3.40432 -3.62475 -3.7874 -3.8785 -3.88685 -3.80469 -3.62856 -3.35943 -3.00331 -2.5695 -2.07143 -1.52399 -0.943316 -0.347252 0.247809 
-2.78723 -2.30269 -1.76178 -1.18107 -0.577286 0.0306276 0.624894 1.18825 1.7037 2.15752 2.53764 2.8363 3.04906 3.17428 3.21341 3.17006 3.05 2.86057 2.61093 2.31083 1.97136 1.6033 1.21705 0.822938 0.428951 0.0421998 -0.333152 -0.695332 -1.04426 -1.38265 -1.71338 -2.03944 -2.36103 -2.67269 -2.96523 -3.22587 -3.44003 -3.59224 -3.66801 -3.65596 -3.54865 -3.34329 -3.04187 -2.65182 -2.18416 -1.65452 -1.08008 -0.478954 0.129561 0.728207 
-2.98791 -2.52643 -2.00698 -1.44563 -0.858697 -0.264727 0.318813 0.874907 1.38684 1.84138 2.227 2.5363 2.76491 2.91101 2.97576 2.9623 2.87585 2.72311 2.5125 2.25302 1.95492 1.62818 1.28246 0.927247 0.569873 0.216775 -0.128386 -0.46422 -0.790925 -1.11125 -1.42799 -1.74377 -2.05826 -2.3654 -2.655 -2.91264 -3.12216 -3.26712 -3.3326 -3.30718 -3.18368 -2.95983 -2.6383 -2.22747 -1.73948 -1.19145 -0.602348 0.00770539 0.617737 1.20956 
-3.14242 -2.70818 -2.21489 -1.67803 -1.11339 -0.538994 0.0281285 0.571437 1.0749 1.52607 1.9141 2.23197 2.47547 2.64266 2.73449 2.75361 2.70469 2.59378 2.42846 2.2169 1.96837 1.69191 1.39618 1.08965 0.778746 0.468978 0.163258 -0.137644 -0.434431 -0.730077 -1.0274 -1.32875 -1.63324 -1.93402 -2.21968 -2.4743 -2.6806 -2.82157 -2.88209 -2.8508 -2.72077 -2.49006 -2.16175 -1.74473 -1.25174 -0.700646 -0.111448 0.494337 1.09415 1.66862 
-3.2446 -2.84155 -2.37892 -1.87148 -1.33437 -0.784872 -0.239467 0.286065 0.776657 1.22071 1.60806 1.9321 2.18883 2.37634 2.49541 2.54832 2.53923 2.47354 2.35794 2.19975 2.00711 1.78798 1.54992 1.30013 1.04397 0.785759 0.527454 0.268992 0.00895374 -0.256006 -0.528865 -0.811732 -1.10311 -1.39523 -1.6754 -1.92658 -2.13086 -2.27096 -2.33179 -2.30214 -2.17527 -1.94944 -1.62791 -1.21965 -0.737534 -0.199583 0.373913 0.960864 1.53778 2.08414 
