-2.5
-0.844116 -1.13619 -1.40571 -1.64439 -1.84561 -2.00301 -2.11019 -2.16034 -2.14794 -2.07022 -1.92795 -1.72552 -1.4709 -1.1759 -0.854436 -0.523198 -0.199361 0.0997764 0.357289 0.558827 0.6923 0.749581 0.726482 0.623295 0.444534 0.198995 -0.101797 -0.444844 -0.81665 -1.20544 -1.59771 -1.97784 -2.32754 -2.62694 -2.85806 -3.00499 -3.05621 -3.00466 -2.84853 -2.59094 -2.24043 -1.80968 -1.31597 -0.782003 -0.232181 0.306886 0.810543 1.25654 1.62558 1.90418 
-1.44014 -1.71947 -1.97062 -2.18572 -2.35883 -2.48518 -2.56118 -2.58283 -2.5465 -2.45032 -2.29524 -2.08527 -1.8276 -1.53301 -1.21425 -0.886768 -0.5665 -0.269577 -0.0118544 0.193259 0.33446 0.404246 0.398884 0.318899 0.168872 -0.0426306 -0.304533 -0.604594 -0.930487 -1.27148 -1.61436 -1.94299 -2.23877 -2.48224 -2.65616 -2.74581 -2.74088 -2.63562 -2.42965 -2.12739 -1.73872 -1.27727 -0.760163 -0.209014 0.352972 0.900034 1.40816 1.85564 2.22368 2.4993 
-1.99918 -2.26323 -2.49383 -2.68381 -2.82843 -2.92498 -2.9724 -2.96915 -2.91319 -2.80322 -2.64017 -2.42742 -2.1712 -1.8811 -1.56854 -1.2476 -0.932903 -0.639337 -0.38164 -0.17226 -0.0217241 0.0630517 0.078728 0.0259481 -0.0907731 -0.263292 -0.481215 -0.73332 -1.00878 -1.29778 -1.58713 -1.86038 -2.09916 -2.28485 -2.40121 -2.43486 -2.37674 -2.22237 -1.97259 -1.63286 -1.21409 -0.730734 -0.200367 0.356048 0.916896 1.45806 1.95689 2.39278 2.74794 3.01028 
-2.5042 -2.75077 -2.95934 -3.12404 -3.24206 -3.31257 -3.33621 -3.31326 -3.24303 -3.12467 -2.95887 -2.74826 -2.498 -2.21635 -1.91333 -1.60157 -1.2943 -1.00513 -0.74765 -0.533333 -0.371947 -0.269862 -0.230094 -0.251991 -0.331246 -0.460336 -0.629789 -0.82971 -1.05095 -1.28444 -1.51696 -1.73221 -1.91249 -2.04032 -2.10069 -2.0816 -1.97526 -1.77832 -1.49267 -1.1245 -0.685359 -0.190163 0.343169 0.893741 1.44107 1.96307 2.43919 2.85062 3.18113 3.41992 
-2.94143 -3.16885 -3.35507 -3.49632 -3.59171 -3.64171 -3.64784 -3.61147 -3.53299 -3.41193 -3.24868 -3.04506 -2.80508 -2.53562 -2.24524 -1.94507 -1.64691 -1.36306 -1.10593 -0.886018 -0.712358 -0.590812 -0.524147 -0.511809 -0.54985 -0.63157 -0.748675 -0.892929 -1.0569 -1.2321 -1.40555 -1.56153 -1.68337 -1.75496 -1.76262 -1.69578 -1.54785 -1.31648 -1.00434 -0.618097 -0.169555 0.32635 0.851788 1.38603 1.90909 2.40043 2.84188 3.2171 3.51206 3.71769 
-3.29928 -3.50645 -3.6716 -3.79305 -3.87124 -3.90735 -3.90317 -3.8604 -3.7801 -3.66214 -3.50662 -3.31459 -3.08889 -2.83501 -2.56003 -2.27356 -1.98595 -1.70817 -1.45144 -1.22531 -1.03809 -0.895167 -0.799143 -0.749676 -0.743329 -0.774438 -0.836157 -0.922197 -1.02682 -1.14212 -1.25569 -1.35277 -1.41795 -1.43666 -1.39662 -1.28866 -1.10727 -0.850908 -0.522826 -0.129831 0.316372 0.801237 1.30748 1.81501 2.30442 2.75607 3.15355 3.48313 3.73353 3.89793 
-3.57284 -3.75894 -3.90492 -4.01077 -4.07767 -4.10689 -4.09993 -4.05814 -3.98263 -3.87354 -3.73075 -3.55458 -3.34677 -3.11145 -2.85426 -2.58326 -2.30738 -2.03624 -1.77989 -1.54692 -1.34494 -1.17894 -1.05141 -0.962343 -0.908978 -0.886915 -0.891047 -0.917272 -0.961517 -1.01651 -1.0708 -1.11084 -1.1227 -1.09341 -1.01209 -0.870882 -0.665237 -0.394237 -0.0614129 0.326546 0.758406 1.22039 1.69616 2.16678 2.61382 3.01859 3.36577 3.64353 3.84328 3.96077 
-3.76403 -3.92848 -4.05679 -4.15038 -4.21098 -4.23962 -4.23702 -4.20352 -4.13949 -4.04495 -3.91961 -3.76321 -3.57649 -3.3623 -3.12487 -2.87076 -2.60749 -2.34336 -2.08724 -1.84678 -1.62893 -1.43832 -1.27743 -1.14672 -1.04428 -0.967215 -0.912481 -0.878313 -0.862259 -0.857853 -0.854864 -0.841194 -0.80446 -0.73334 -0.618304 -0.452685 -0.232724 0.0420762 0.368176 0.739287 1.14499 1.57262 2.00718 2.43126 2.82787 3.17966 3.4723 3.69517 3.84171 3.90989 
-3.8801 -4.02273 -4.13444 -4.21794 -4.27543 -4.30787 -4.31511 -4.29621 -4.25002 -4.17555 -4.0721 -3.93898 -3.7761 -3.58511 -3.36894 -3.13273 -2.8826 -2.62555 -2.36934 -2.12068 -1.88591 -1.66937 -1.47361 -1.29971 -1.14681 -1.01379 -0.900007 -0.806072 -0.73109 -0.669581 -0.612757 -0.550072 -0.470752 -0.365064 -0.224754 -0.0441896 0.179785 0.447465 0.755572 1.09849 1.46692 1.84963 2.23328 2.60236 2.94162 3.23544 3.47072 3.63777 3.73139 3.75118 
-3.93226 -4.05333 -4.14929 -4.22394 -4.28003 -4.31846 -4.3386 -4.33837 -4.31497 -4.2656 -4.18827 -4.08161 -3.94491 -3.77876 -3.58493 -3.36718 -3.13035 -2.88018 -2.62331 -2.3656 -2.11282 -1.8691 -1.6372 -1.41896 -1.21479 -1.02568 -0.85365 -0.701652 -0.570241 -0.455098 -0.349012 -0.243047 -0.128029 0.00427508 0.160958 0.346798 0.564547 0.814519 1.09396 1.39817 1.71927 2.04772 2.3721 2.6791 2.95547 3.18759 3.36383 3.47542 3.51799 3.49216 
-3.93353 -4.03376 -4.11476 -4.18128 -4.23657 -4.28161 -4.31546 -4.33534 -4.33713 -4.31623 -4.26854 -4.19118 -4.08255 -3.9424 -3.77146 -3.57227 -3.34844 -3.10453 -2.84615 -2.57836 -2.30643 -2.03439 -1.76533 -1.50208 -1.24659 -1.00228 -0.773989 -0.566782 -0.382616 -0.218454 -0.0687267 0.0738963 0.217052 0.367594 0.531606 0.713208 0.914951 1.13739 1.37854 1.63484 1.90006 2.16659 2.42515 2.6648 2.87451 3.0428 3.15966 3.2173 3.21178 3.14403 
-3.89782 -3.97835 -4.04522 -4.10401 -4.15839 -4.20953 -4.25637 -4.29567 -4.32247 -4.33082 -4.31459 -4.26864 -4.18962 -4.07619 -3.92821 -3.74718 -3.53557 -3.29689 -3.03578 -2.75659 -2.46423 -2.16274 -1.85573 -1.54724 -1.24107 -0.94344 -0.661889 -0.403291 -0.170964 0.0367583 0.223806 0.395952 0.559396 0.719773 0.882316 1.0507 1.22747 1.41365 1.60821 1.80895 2.01151 2.21031 2.39839 2.56732 2.70836 2.81224 2.87058 2.87659 2.82646 2.7207 
-3.83886 -3.90122 -3.95493 -4.0062 -4.05913 -4.11513 -4.17313 -4.22973 -4.27941 -4.31533 -4.32985 -4.31571 -4.26707 -4.18066 -4.05526 -3.89144 -3.69076 -3.45577 -3.19029 -2.89809 -2.58383 -2.25175 -1.90621 -1.55275 -1.19738 -0.849291 -0.518413 -0.213066 0.062083 0.307291 0.524893 0.719199 0.895103 1.05719 1.21004 1.35707 1.50103 1.64358 1.78488 1.92421 2.0592 2.18648 2.30144 2.3982 2.47029 2.51062 2.51237 2.46954 2.37827 2.23789 
-3.76977 -3.81588 -3.85752 -3.90147 -3.95218 -4.01132 -4.07796 -4.14869 -4.21771 -4.27766 -4.31985 -4.33544 -4.31626 -4.25635 -4.15259 -4.00451 -3.8129 -3.57955 -3.30762 -3.00045 -2.66268 -2.29897 -1.91469 -1.51723 -1.11519 -0.720555 -0.3451 0.0016529 0.31369 0.589877 0.831051 1.04018 1.22102 1.3773 1.5131 1.63182 1.73658 1.82983 1.91307 1.98719 2.05189 2.10602 2.14732 2.1724 2.17697 2.15592 2.10375 2.01501 1.88541 1.71284 
-3.70232 -3.73432 -3.76514 -3.80196 -3.84956 -3.90988 -3.98221 -4.06325 -4.14718 -4.22635 -4.29146 -4.33252 -4.33962 -4.30417 -4.2204 -4.08606 -3.90113 -3.66684 -3.38593 -3.06153 -2.6985 -2.3022 -1.87939 -1.43971 -0.994526 -0.558004 -0.14319 0.239221 0.581939 0.882507 1.14039 1.35737 1.53621 1.68 1.79252 1.87729 1.93799 1.97799 2.00025 2.00729 2.00092 1.98216 1.95102 1.90642 1.84604 1.76646 1.66312 1.53077 1.36466 1.16167 
-3.64677 -3.66703 -3.68838 -3.71832 -3.76189 -3.82132 -3.89613 -3.98328 -4.07704 -4.16976 -4.25179 -4.31243 -4.34048 -4.32535 -4.25851 -4.13517 -3.95401 -3.71576 -3.42299 -3.07891 -2.68892 -2.25946 -1.7991 -1.32009 -0.836178 -0.362985 0.0855149 0.497539 0.864609 1.18304 1.45107 1.66947 1.84022 1.96592 2.05022 2.09696 2.11048 2.09516 2.05546 1.99554 1.91927 1.82969 1.72888 1.61784 1.49582 1.3607 1.20859 1.03435 0.833301 0.601929 
-3.61129 -3.62227 -3.63556 -3.65889 -3.6975 -3.75389 -3.82788 -3.91671 -4.01492 -4.11498 -4.20716 -4.28037 -4.32257 -4.32168 -4.26697 -4.15084 -3.96994 -3.72433 -3.4166 -3.05038 -2.632 -2.16945 -1.67355 -1.15906 -0.64135 -0.13698 0.339331 0.774897 1.16013 1.49023 1.76241 1.97657 2.13409 2.23727 2.28978 2.29591 2.26073 2.18971 2.08875 1.96362 1.82005 1.66295 1.49612 1.32223 1.1418 0.953868 0.755216 0.541272 0.307641 0.0505569 
-3.6018 -3.60596 -3.61259 -3.62955 -3.66226 -3.71346 -3.78327 -3.86927 -3.96635 -4.06724 -4.16234 -4.24043 -4.28898 -4.29492 -4.24588 -4.13186 -3.94709 -3.69045 -3.36469 -2.97417 -2.52663 -2.03211 -1.50384 -0.958468 -0.412179 0.117808 0.616082 1.06925 1.46674 1.80281 2.07379 2.27891 2.41909 2.49652 2.51499 2.47933 2.39538 2.26968 2.10953 1.9221 1.71475 1.49394 1.265 1.03198 0.796568 0.558976 0.316882 0.066416 -0.19655 -0.476045 
-3.62166 -3.62136 -3.62265 -3.63344 -3.65928 -3.70312 -3.7654 -3.84405 -3.93438 -4.0295 -4.12007 -4.19499 -4.24156 -4.24612 -4.19521 -4.0771 -3.88373 -3.61242 -3.26598 -2.84987 -2.37371 -1.84984 -1.29337 -0.722051 -0.152523 0.397464 0.911954 1.37701 1.78127 2.11817 2.38333 2.5755 2.69526 2.74484 2.72824 2.65085 2.51928 2.34103 2.12467 1.87861 1.61166 1.33159 1.04502 0.757408 0.471558 0.188753 -0.0924523 -0.37535 -0.663753 -0.961829 
-3.67137 -3.66879 -3.66589 -3.67059 -3.6885 -3.72279 -3.77419 -3.84103 -3.91907 -4.00186 -4.0805 -4.14419 -4.1803 -4.17502 -4.1143 -3.98531 -3.77833 -3.48905 -3.1202 -2.67869 -2.17624 -1.62702 -1.04715 -0.455008 0.132343 0.696734 1.22189 1.69346 2.09943 2.43259 2.68803 2.86409 2.96124 2.98175 2.92987 2.81162 2.63437 2.40657 2.13793 1.83793 1.51664 1.18296 0.844618 0.508286 0.177756 -0.144713 -0.459839 -0.770394 -1.07989 -1.39257 
-3.74832 -3.74536 -3.73922 -3.73774 -3.74659 -3.76912 -3.80637 -3.85706 -3.91744 -3.98161 -4.04121 -4.0859 -4.10343 -4.08016 -4.00194 -3.85551 -3.63024 -3.32064 -2.92933 -2.46463 -1.93991 -1.37028 -0.77237 -0.164973 0.434508 1.00763 1.53791 2.01076 2.41376 2.73911 2.98142 3.13887 3.21184 3.20282 3.11646 2.95951 2.74014 2.4676 2.15252 1.80521 1.43672 1.05682 0.674154 0.29636 -0.0719514 -0.427695 -0.770965 -1.10407 -1.43022 -1.75367 
-3.84683 -3.84508 -3.83635 -3.82842 -3.82695 -3.83552 -3.85543 -3.88582 -3.92352 -3.96319 -3.99717 -4.01577 -4.00733 -3.9588 -3.85637 -3.68701 -3.43998 -3.10938 -2.69768 -2.21373 -1.67169 -1.08708 -0.476914 0.13983 0.745553 1.32163 1.8515 2.3204 2.71574 3.02934 3.25554 3.39241 3.4405 3.40281 3.28463 3.09332 2.83762 2.5273 2.17358 1.78731 1.38021 0.962711 0.544136 0.132898 -0.265736 -0.647999 -1.01345 -1.36399 -1.70254 -2.03329 
-3.95823 -3.95887 -3.94794 -3.93306 -3.91996 -3.91237 -3.91193 -3.91822 -3.92868 -3.93865 -3.94129 -3.92775 -3.88726 -3.8077 -3.67612 -3.48037 -3.21033 -2.86023 -2.43185 -1.93351 -1.37953 -0.785752 -0.169248 0.450871 1.05674 1.62977 2.15351 2.6133 2.99646 3.29464 3.50227 3.61767 3.64194 3.57872 3.43367 3.21451 2.93016 2.59061 2.20734 1.79151 1.35523 0.909408 0.463838 0.0275106 -0.393797 -0.795778 -1.17755 -1.54064 -1.8877 -2.22276 
-4.07088 -4.07474 -4.06168 -4.03924 -4.01317 -3.98742 -3.96398 -3.94292 -3.9224 -3.89851 -3.86543 -3.81534 -3.73867 -3.62466 -3.46171 -3.23905 -2.94743 -2.58101 -2.14044 -1.63294 -1.07271 -0.475692 0.141097 0.758398 1.35827 1.92232 2.43439 2.88012 3.24696 3.52684 3.71478 3.80983 3.81364 3.73013 3.56501 3.32596 3.0218 2.66244 2.25942 1.82392 1.36829 0.903643 0.440103 -0.0129606 -0.449402 -0.864509 -1.25705 -1.62821 -1.98037 -2.31734 
-4.17137 -4.17887 -4.16355 -4.13286 -4.09259 -4.04698 -3.99843 -3.94759 -3.89343 -3.83296 -3.76155 -3.67272 -3.55841 -3.4096 -3.21629 -2.96896 -2.65886 -2.27995 -1.83187 -1.32063 -0.759945 -0.165683 0.445138 1.05335 1.64126 2.19076 2.68601 3.11309 3.46026 3.72045 3.88969 3.96763 3.95606 3.85884 3.68138 3.43105 3.11634 2.74686 2.33394 1.88866 1.42333 0.949139 0.476337 0.014508 -0.429973 -0.852119 -1.25042 -1.62579 -1.9803 -2.31743 
-4.24506 -4.25634 -4.23851 -4.19897 -4.14366 -4.07712 -4.00228 -3.92049 -3.83169 -3.734 -3.62425 -3.49752 -3.3474 -3.16654 -2.94627 -2.67801 -2.35342 -1.96631 -1.51557 -1.00606 -0.450721 0.134834 0.733613 1.32674 1.89701 2.42665 2.90037 3.30529 3.63125 3.87257 4.02605 4.09153 4.07066 3.96691 3.78518 3.53229 3.2162 2.84605 2.43277 1.98713 1.52127 1.04625 0.572294 0.109032 -0.337067 -0.760861 -1.16064 -1.53708 -1.8919 -2.22817 
-4.27827 -4.29328 -4.27278 -4.22415 -4.15355 -4.06598 -3.96504 -3.85292 -3.73069 -3.59777 -3.45252 -3.29152 -3.10983 -2.90147 -2.6588 -2.3741 -2.03956 -1.64893 -1.20054 -0.698144 -0.153833 0.417232 0.998215 1.57067 2.11801 2.62304 3.07167 3.45285 3.75825 3.98325 4.12508 4.18347 4.15968 4.05659 3.87843 3.63128 3.32242 2.96037 2.55551 2.11816 1.66007 1.19207 0.724173 0.265901 -0.176302 -0.597256 -0.995123 -1.37033 -1.72424 -2.05935 
-4.26042 -4.27915 -4.25612 -4.19884 -4.11377 -4.00651 -3.88143 -3.74171 -3.58963 -3.42586 -3.25008 -3.06019 -2.85248 -2.62212 -2.36243 -2.06647 -1.72687 -1.33748 -0.896194 -0.405888 0.122237 0.673479 1.23143 1.77822 2.29794 2.77474 3.1966 3.55458 3.84173 4.05406 4.18894 4.24578 4.22531 4.12966 3.96228 3.72839 3.43449 3.08834 2.69963 2.27812 1.83503 1.38076 0.925017 0.477056 0.043177 -0.371501 -0.765058 -1.13768 -1.4903 -1.8247 
-4.1871 -4.2097 -4.18481 -4.12014 -4.02256 -3.89836 -3.75275 -3.58991 -3.41323 -3.22448 -3.02451 -2.81228 -2.58515 -2.33925 -2.06869 -1.76718 -1.42774 -1.04432 -0.614512 -0.140503 0.367356 0.894698 1.42555 1.94283 2.43174 2.87872 3.27424 3.61114 3.88343 4.08739 4.22022 4.28088 4.26945 4.18728 4.03693 3.82275 3.55032 3.22659 2.86046 2.46099 2.03874 1.60357 1.16474 0.731105 0.308718 -0.0974417 -0.485405 -0.855102 -1.20692 -1.54175 
-4.06008 -4.08684 -4.06109 -3.99081 -3.8834 -3.74588 -3.58429 -3.40375 -3.20865 -3.00173 -2.78479 -2.55771 -2.31865 -2.06448 -1.78992 -1.48914 -1.15544 -0.782815 -0.368642 0.0854428 0.569816 1.07045 1.57179 2.05778 2.51544 2.93382 3.30551 3.62468 3.88613 4.08624 4.22183 4.29127 4.29392 4.23032 4.10219 3.91289 3.66711 3.37093 3.03234 2.65962 2.26256 1.85038 1.43176 1.01504 0.605948 0.209272 -0.172982 -0.540431 -0.892789 -1.22981 
-3.88467 -3.91583 -3.89034 -3.81652 -3.70236 -3.55563 -3.38321 -3.19107 -2.98446 -2.76692 -2.54103 -2.30732 -2.06454 -1.81006 -1.53896 -1.24568 -0.923633 -0.566812 -0.172345 0.258541 0.716784 1.18884 1.65976 2.11503 2.54403 2.93798 3.29075 3.59729 3.8528 4.05375 4.19667 4.27932 4.3003 4.25934 4.15734 3.99673 3.7813 3.51619 3.20845 2.86553 2.49636 2.10939 1.71264 1.31386 0.91841 0.530826 0.15319 -0.21371 -0.568737 -0.910223 
-3.667 -3.70273 -3.67865 -3.6035 -3.48594 -3.33446 -3.15675 -2.95952 -2.74875 -2.52862 -2.30225 -2.07061 -1.83278 -1.58636 -1.32658 -1.0479 -0.743696 -0.407829 -0.0371641 0.367405 0.797293 1.23951 1.68026 2.10727 2.51221 2.88777 3.22845 3.52929 3.78526 3.99257 4.14746 4.24731 4.29013 4.27491 4.2018 4.07235 3.88947 3.65739 3.3822 3.07046 2.73015 2.36893 1.99408 1.61271 1.22974 0.849507 0.474223 0.10522 -0.255275 -0.603841 
-3.41346 -3.45378 -3.43222 -3.35804 -3.24054 -3.08896 -2.91168 -2.71608 -2.50873 -2.29425 -2.07608 -1.8554 -1.63139 -1.40159 -1.16115 -0.90433 -0.624267 -0.314586 0.0281688 0.403405 0.802902 1.2145 1.6264 2.02885 2.41534 2.77944 3.11574 3.41884 3.68298 3.90349 4.07591 4.19712 4.26487 4.2777 4.23519 4.13814 3.98863 3.79004 3.54747 3.26661 2.95447 2.61786 2.26328 1.89719 1.52408 1.14815 0.771857 0.397265 0.0280003 -0.330427 
-3.13073 -3.17548 -3.15747 -3.0865 -2.97253 -2.82547 -2.65433 -2.46707 -2.27065 -2.06998 -1.8686 -1.66767 -1.46621 -1.26147 -1.04827 -0.820424 -0.57069 -0.292316 0.018526 0.361491 0.728775 1.10962 1.49478 1.8769 2.25079 2.61045 2.95015 3.26367 3.54406 3.78539 3.98191 4.12959 4.22564 4.26842 4.25741 4.1929 4.0763 3.91021 3.69881 3.4469 3.16056 2.84575 2.5082 2.15372 1.78648 1.41061 1.02899 0.644698 0.263143 -0.107873 
-2.82441 -2.8732 -2.8596 -2.79394 -2.6868 -2.5487 -2.38923 -2.21676 -2.03851 -1.85949 -1.68314 -1.51037 -1.33983 -1.16822 -0.989807 -0.79777 -0.584294 -0.342147 -0.0670825 0.240727 0.574192 0.924599 1.28545 1.65139 2.01817 2.37988 2.7302 3.06179 3.36621 3.63594 3.86356 4.0436 4.17228 4.24742 4.2686 4.23612 4.15106 4.01537 3.8324 3.60615 3.34182 3.04453 2.71933 2.37149 2.00489 1.62383 1.23187 0.833419 0.436102 0.0499778 
-2.50016 -2.55229 -2.5437 -2.48518 -2.38789 -2.26287 -2.12016 -1.96846 -1.81505 -1.66492 -1.52119 -1.38431 -1.25235 -1.12124 -0.984495 -0.834466 -0.66263 -0.461182 -0.225427 0.0446333 0.343044 0.663632 1.00251 1.35597 1.72041 2.08976 2.45689 2.81319 3.14852 3.45351 3.71881 3.93716 4.10329 4.21397 4.2685 4.26739 4.21191 4.10368 3.94541 3.74038 3.49302 3.20775 2.88902 2.5417 2.16961 1.77745 1.36977 0.952768 0.536591 0.13322 
-2.16239 -2.21684 -2.21351 -2.1636 -2.07875 -1.97044 -1.84904 -1.72342 -1.60083 -1.48604 -1.38165 -1.28751 -1.20089 -1.11676 -1.02773 -0.925142 -0.799663 -0.642849 -0.449563 -0.21954 0.0428912 0.334323 0.653192 0.997145 1.363 1.74439 2.13324 2.51955 2.89138 3.23739 3.54605 3.80806 4.01633 4.16612 4.25587 4.28596 4.2581 4.17412 4.03629 3.84736 3.61114 3.33155 3.01259 2.65897 2.27472 1.86527 1.4366 0.997178 0.559652 0.137324 
-1.81479 -1.87012 -1.8719 -1.83163 -1.7613 -1.67272 -1.57647 -1.48148 -1.39479 -1.3208 -1.26146 -1.21583 -1.18024 -1.1485 -1.1122 -1.06155 -0.986327 -0.877425 -0.729308 -0.54122 -0.315449 -0.0526523 0.247632 0.584174 0.954074 1.35056 1.76459 2.18471 2.59711 2.98842 3.34483 3.65481 3.90919 4.10135 4.22844 4.29011 4.28832 4.22545 4.10381 3.92571 3.69455 3.41393 3.08772 2.72078 2.31768 1.88504 1.43081 0.966071 0.505441 0.062942 
-1.46116 -1.51544 -1.52168 -1.4915 -1.43715 -1.37057 -1.30245 -1.24165 -1.19484 -1.16595 -1.1561 -1.16342 -1.18318 -1.20792 -1.2281 -1.23271 -1.21062 -1.15207 -1.05119 -0.906437 -0.717782 -0.483297 -0.20076 0.129554 0.504937 0.918176 1.35924 1.81526 2.27057 2.70973 3.11661 3.47736 3.78056 4.01745 4.18352 4.27727 4.30032 4.25562 4.14608 3.97391 3.74209 3.4541 3.11399 2.72718 2.29925 1.8386 1.35564 0.86392 0.379289 -0.0838392 
-1.10407 -1.15481 -1.16429 -1.14406 -1.10642 -1.06335 -1.02546 -1.0014 -0.997365 -1.01665 -1.05946 -1.12287 -1.20097 -1.28498 -1.36413 -1.4262 -1.45914 -1.45264 -1.40048 -1.30009 -1.14893 -0.942745 -0.677758 -0.353414 0.0277225 0.457998 0.926434 1.4188 1.91761 2.40544 2.8638 3.27651 3.62979 3.91256 4.11842 4.24433 4.29113 4.26191 4.16048 3.98967 3.75226 3.4516 3.09212 2.6802 2.22304 1.73143 1.21842 0.69933 0.190758 -0.292548 
-0.746821 -0.790895 -0.801733 -0.790601 -0.769648 -0.750681 -0.744095 -0.758185 -0.79853 -0.867706 -0.964873 -1.08599 -1.22392 -1.36847 -1.50767 -1.62809 -1.71686 -1.76324 -1.76063 -1.70512 -1.5917 -1.41402 -1.16694 -0.849156 -0.463111 -0.0168576 0.477749 1.0052 1.54631 2.08171 2.59066 3.05465 3.45749 3.78574 4.03092 4.18819 4.2573 4.24101 4.14384 3.96987 3.72247 3.40507 3.02256 2.58261 2.09448 1.57168 1.02945 0.484168 -0.0469958 -0.548925 
-0.392301 -0.425781 -0.435363 -0.43172 -0.426598 -0.43143 -0.456213 -0.508747 -0.59387 -0.713339 -0.865193 -1.04422 -1.24201 -1.447 -1.64602 -1.82454 -1.96894 -2.06831 -2.11548 -2.10499 -2.02949 -1.88078 -1.65248 -1.34263 -0.953523 -0.493559 0.0246251 0.584363 1.16488 1.745 2.30183 2.81459 3.26476 3.63647 3.91909 4.10587 4.19521 4.18922 4.0928 3.91145 3.65002 3.3127 2.9052 2.43682 1.9191 1.36775 0.799324 0.230793 -0.320109 -0.837766 
-0.0444644 -0.0620985 -0.0668191 -0.0682196 -0.0772122 -0.104605 -0.159807 -0.249963 -0.379056 -0.547929 -0.75345 -0.989206 -1.24553 -1.50951 -1.76691 -2.00217 -2.20119 -2.35293 -2.44958 -2.48392 -2.44643 -2.32732 -2.11913 -1.81923 -1.42979 -0.959468 -0.421565 0.166225 0.781696 1.40202 2.00227 2.55954 3.05305 3.46457 3.78133 3.99459 4.1013 4.10276 4.00394 3.81167 3.5329 3.17354 2.74075 2.24581 1.70217 1.12676 0.536797 -0.05033 -0.616434 -1.14545 
0.290727 0.295645 0.300802 0.297889 0.277438 0.229708 0.146105 0.0203035 -0.150707 -0.366777 -0.623573 -0.913482 -1.22563 -1.54585 -1.85896 -2.1486 -2.40045 -2.6033 -2.74844 -2.82694 -2.82738 -2.73857 -2.55209 -2.26471 -1.87841 -1.40202 -0.849396 -0.239101 0.405409 1.05982 1.69737 2.29318 2.82435 3.27044 3.61659 3.85216 3.97261 3.97839 3.87446 3.66879 3.37077 2.98898 2.5327 2.01493 1.45018 0.855979 0.249954 -0.350158 -0.925861 -1.46088 
0.607593 0.642612 0.664057 0.664542 0.636349 0.571442 0.462427 0.303975 0.0941652 -0.165792 -0.470339 -0.810701 -1.17488 -1.54758 -1.91286 -2.25384 -2.55618 -2.80837 -3.00053 -3.12222 -3.16037 -3.10263 -2.93973 -2.66785 -2.28875 -1.81135 -1.24991 -0.623719 0.0427302 0.723823 1.39119 2.01818 2.57996 3.05407 3.42373 3.67655 3.80661 3.81357 3.70242 3.48227 3.16508 2.76267 2.28658 1.7508 1.17029 0.563012 -0.0532178 -0.660445 -1.23985 -1.77518 
0.900187 0.972738 1.01755 1.02759 0.996607 0.918686 0.788229 0.601149 0.356719 0.0572765 -0.290407 -0.676444 -1.08782 -1.50833 -1.9215 -2.3102 -2.66014 -2.95929 -3.19647 -3.35995 -3.43537 -3.4094 -3.27202 -3.01887 -2.65146 -2.17869 -1.61508 -0.980467 -0.300175 0.399106 1.08765 1.73727 2.32148 2.81604 3.20251 3.46694 3.60232 3.60769 3.48828 3.25446 2.92059 2.50136 2.0102 1.46173 0.871241 0.256931 -0.363402 -0.971655 -1.54888 -2.07892 
1.16435 1.28109 1.3562 1.38256 1.35484 1.26905 1.12192 0.911089 0.637086 0.303415 -0.081963 -0.50813 -0.961208 -1.42429 -1.88068 -2.31324 -2.70754 -3.05076 -3.33053 -3.5341 -3.64613 -3.65255 -3.54268 -3.31164 -2.96066 -2.49851 -1.93986 -1.30487 -0.619483 0.0887792 0.789124 1.45212 2.04992 2.55684 2.9531 3.22357 3.36042 3.36245 3.23535 2.9906 2.64422 2.213 1.71198 1.15644 0.561856 -0.0534682 -0.671719 -1.27483 -1.84403 -2.36329 
1.39736 1.56366 1.67529 1.72461 1.70675 1.61914 1.46083 1.23172 0.933892 0.571938 0.154937 -0.305269 -0.794119 -1.29428 -1.78911 -2.26153 -2.69658 -3.08052 -3.40009 -3.64177 -3.78957 -3.82884 -3.74839 -3.54284 -3.21311 -2.76773 -2.22137 -1.59433 -0.912925 -0.205223 0.497229 1.16409 1.76652 2.27779 2.67718 2.94882 3.08449 3.08298 2.95027 2.69839 2.34426 1.90613 1.40063 0.843777 0.25108 -0.359159 -0.96918 -1.56115 -2.11656 -2.61966 
1.59762 1.81715 1.9702 2.0484 2.04691 1.96402 1.80069 1.55927 1.2438 0.860011 0.417919 -0.0698887 -0.588388 -1.12011 -1.64859 -2.15656 -2.62833 -3.04934 -3.40557 -3.68307 -3.86548 -3.93779 -3.88842 -3.71152 -3.40768 -2.98509 -2.45823 -1.84738 -1.17889 -0.481141 0.213957 0.875538 1.47418 1.9826 2.37959 2.64896 2.7822 2.77799 2.64222 2.38704 2.02992 1.59011 1.08561 0.533242 -0.05148 -0.650545 -1.24644 -1.82153 -2.35776 -2.83986 
1.76542 2.04003 2.23795 2.34985 2.37063 2.299 2.13721 1.88979 1.56305 1.16405 0.703556 0.194618 -0.347561 -0.905579 -1.46296 -2.00195 -2.50622 -2.96049 -3.35008 -3.6609 -3.87652 -3.98178 -3.96484 -3.81942 -3.54574 -3.15153 -2.65094 -2.06398 -1.41678 -0.73764 -0.0585003 0.589717 1.17748 1.67733 2.06787 2.33265 2.46289 2.45688 2.32036 2.06547 1.70993 1.27367 0.775709 0.23351 -0.337427 -0.91952 -1.49563 -2.04846 -2.5606 -3.01784 
