-2.5
-0.407801 -0.190292 -0.0336451 0.0542964 0.0684723 0.00715233 -0.127414 -0.329196 -0.588157 -0.891817 -1.22485 -1.57124 -1.91475 -2.23915 -2.53049 -2.77613 -2.9663 -3.09378 -3.15473 -3.14993 -3.08391 -2.9639 -2.79876 -2.59869 -2.37377 -2.13441 -1.88985 -1.64812 -1.41602 -1.1978 -0.995893 -0.809826 -0.636569 -0.470962 -0.305372 -0.131237 0.06053 0.277684 0.524062 0.798775 1.0958 1.40728 1.72429 2.03693 2.33625 2.61289 2.85853 3.06561 3.22726 3.33704 
-0.269459 -0.0479453 0.111443 0.201219 0.216666 0.155884 0.0206 -0.18387 -0.448234 -0.760697 -1.10643 -1.4697 -1.83428 -2.18365 -2.50332 -2.77977 -3.00222 -3.16245 -3.25586 -3.28276 -3.24718 -3.15597 -3.01764 -2.84205 -2.63913 -2.41914 -2.19138 -1.96406 -1.74434 -1.53695 -1.34499 -1.1687 -1.00585 -0.852002 -0.700141 -0.541988 -0.36831 -0.170542 0.0568762 0.315125 0.599453 0.90249 1.21585 1.53014 1.83654 2.12558 2.38863 2.6177 2.80544 2.9453 
-0.0610671 0.159372 0.316395 0.401766 0.411125 0.342999 0.199092 -0.0156049 -0.292255 -0.61956 -0.983073 -1.36731 -1.7561 -2.13269 -2.48215 -2.79025 -3.04542 -3.2386 -3.36448 -3.42296 -3.41766 -3.35507 -3.24343 -3.09232 -2.91151 -2.71119 -2.50072 -2.28852 -2.08204 -1.88656 -1.70575 -1.54061 -1.38969 -1.24931 -1.1131 -0.973167 -0.820283 -0.645289 -0.441159 -0.204461 0.0621048 0.352206 0.658047 0.970572 1.28104 1.57986 1.85819 2.10771 2.32059 2.49016 
0.211127 0.425037 0.575504 0.652432 0.65071 0.569291 0.410392 0.179148 -0.115696 -0.463102 -0.848844 -1.25763 -1.67333 -2.07903 -2.45952 -2.79999 -3.08824 -3.31449 -3.47278 -3.56262 -3.58725 -3.55289 -3.46756 -3.34063 -3.18179 -3.00118 -2.80825 -2.61163 -2.41913 -2.23648 -2.06796 -1.91528 -1.77775 -1.65244 -1.53364 -1.41387 -1.28398 -1.13436 -0.956688 -0.745373 -0.50058 -0.22715 0.067659 0.375074 0.686479 0.992236 1.28334 1.55119 1.78755 1.98557 
0.539259 0.741078 0.880835 0.946584 0.931347 0.833424 0.655493 0.403277 0.0858638 -0.285663 -0.697097 -1.13323 -1.57797 -2.01428 -2.42679 -2.80027 -3.12194 -3.38137 -3.57197 -3.69287 -3.74698 -3.74031 -3.68072 -3.57745 -3.44018 -3.27906 -3.10367 -2.92291 -2.74489 -2.57585 -2.42063 -2.28162 -2.15887 -2.05012 -1.95033 -1.8524 -1.74727 -1.62492 -1.47588 -1.29258 -1.07262 -0.819084 -0.538564 -0.239479 0.0696843 0.379335 0.680441 0.964177 1.22191 1.44652 
0.912237 1.09707 1.2222 1.27443 1.24484 1.13 0.932057 0.657183 0.315099 -0.0827082 -0.521793 -0.98688 -1.46188 -1.92966 -2.37477 -2.78162 -3.13687 -3.42945 -3.65213 -3.80367 -3.88662 -3.90687 -3.87221 -3.79181 -3.67543 -3.53327 -3.37514 -3.2102 -3.04693 -2.89204 -2.75091 -2.62659 -2.5198 -2.42891 -2.34945 -2.27467 -2.19556 -2.10167 -1.9825 -1.82882 -1.63595 -1.40502 -1.1417 -0.85401 -0.550225 -0.239767 0.0683529 0.365146 0.641641 0.890367 
1.3172 1.48137 1.58883 1.62563 1.58146 1.45095 1.23471 0.938566 0.572631 0.148856 -0.31785 -0.811963 -1.31729 -1.81664 -2.2944 -2.73459 -3.12332 -3.44885 -3.70325 -3.88484 -3.99589 -4.04217 -4.03145 -3.97292 -3.8765 -3.75255 -3.61113 -3.46174 -3.31321 -3.17278 -3.04633 -2.9375 -2.84763 -2.77565 -2.71756 -2.66686 -2.61448 -2.54964 -2.46096 -2.3379 -2.17373 -1.9676 -1.72404 -1.45054 -1.15508 -0.846869 -0.53489 -0.228211 0.0639609 0.333862 
1.73953 1.88096 1.96901 1.98944 1.93102 1.78683 1.55555 1.24183 0.855623 0.409018 -0.0827745 -0.603982 -1.13826 -1.66818 -2.17783 -2.65067 -3.07228 -3.43018 -3.71569 -3.92661 -4.06485 -4.1361 -4.14817 -4.11036 -4.03279 -3.92608 -3.8006 -3.66624 -3.53224 -3.40633 -3.29489 -3.20211 -3.12986 -3.07751 -3.04146 -3.01532 -2.99 -2.95437 -2.89636 -2.80435 -2.6699 -2.49019 -2.26846 -2.01165 -1.7273 -1.42436 -1.11177 -0.798563 -0.494085 -0.206157 
2.16283 2.28126 2.34981 2.35424 2.28284 2.12756 1.88529 1.55895 1.15772 0.693501 0.181423 -0.362794 -0.922751 -1.48067 -2.0201 -2.52383 -2.9768 -3.36585 -3.68139 -3.92054 -4.08481 -4.17977 -4.21331 -4.19487 -4.13487 -4.04423 -3.93372 -3.81366 -3.69374 -3.58215 -3.48578 -3.40928 -3.35495 -3.32252 -3.30866 -3.30706 -3.30862 -3.30193 -3.27429 -3.21319 -3.10877 -2.95647 -2.75817 -2.52011 -2.24941 -1.95468 -1.64473 -1.32848 -1.01517 -0.712308 
2.57168 2.66864 2.71923 2.70948 2.62745 2.46438 2.21569 1.88233 1.47208 0.996272 0.469695 -0.0922349 -0.673131 -1.25482 -1.82029 -2.35171 -2.83341 -3.25147 -3.59529 -3.86112 -4.04994 -4.16714 -4.22065 -4.22011 -4.17628 -4.10043 -4.0038 -3.89713 -3.79054 -3.69269 -3.61089 -3.55022 -3.51342 -3.50048 -3.50833 -3.53076 -3.5586 -3.58022 -3.58238 -3.5518 -3.4774 -3.35309 -3.17944 -2.96189 -2.70712 -2.4234 -2.11927 -1.80338 -1.48452 -1.16973 
2.95064 3.02935 3.06514 3.04443 2.95528 2.78846 2.53824 2.20371 1.79075 1.30956 0.774392 0.200389 -0.395953 -0.996088 -1.58265 -2.1373 -2.6438 -3.08759 -3.45704 -3.74731 -3.95867 -4.09625 -4.16797 -4.18364 -4.15435 -4.09173 -4.00736 -3.91239 -3.81739 -3.73152 -3.66257 -3.61613 -3.59538 -3.60063 -3.62905 -3.67449 -3.72771 -3.77684 -3.80813 -3.8076 -3.76309 -3.66721 -3.51926 -3.32386 -3.08719 -2.81713 -2.52185 -2.2095 -1.88826 -1.56473 
3.28697 3.35204 3.37748 3.35019 3.25835 3.09239 2.84568 2.51563 2.10597 1.62533 1.08734 0.507055 -0.0989082 -0.711761 -1.31391 -1.88662 -2.41324 -2.87872 -3.27041 -3.58231 -3.81378 -3.9695 -4.05734 -4.08711 -4.07004 -4.01796 -3.94282 -3.85628 -3.76951 -3.69237 -3.6333 -3.59846 -3.59152 -3.6131 -3.66058 -3.72782 -3.80545 -3.88129 -3.94109 -3.97022 -3.95557 -3.8886 -3.76748 -3.59593 -3.37962 -3.12589 -2.84237 -2.53662 -2.21627 -1.88758 
3.57051 3.62753 3.64799 3.61927 3.5297 3.36946 3.13109 2.81053 2.40945 1.93483 1.39972 0.819091 0.20955 -0.410007 -1.02186 -1.60707 -2.14868 -2.63129 -3.0414 -3.37176 -3.62056 -3.79186 -3.89304 -3.93363 -3.92485 -3.87882 -3.80811 -3.72517 -3.64205 -3.56945 -3.51656 -3.49018 -3.49444 -3.53027 -3.59518 -3.68295 -3.78402 -3.88587 -3.97367 -4.03219 -4.04744 -4.00993 -3.9168 -3.77089 -3.57723 -3.34251 -3.07369 -2.77774 -2.46187 -2.13208 
3.79375 3.84877 3.87 3.84522 3.76287 3.61284 3.38693 3.07995 2.69198 2.22856 1.70196 1.12694 0.519968 -0.100138 -0.715649 -1.3075 -1.85861 -2.35336 -2.77765 -3.12292 -3.38585 -3.56922 -3.67951 -3.72585 -3.7197 -3.6738 -3.60166 -3.51676 -3.43218 -3.35957 -3.30894 -3.28775 -3.30056 -3.34854 -3.42926 -3.53635 -3.65996 -3.78714 -3.9025 -3.99016 -4.03538 -4.02783 -3.96379 -3.84522 -3.67643 -3.46333 -3.2122 -2.92949 -2.62206 -2.29573 
3.95293 4.0118 4.03924 4.02327 3.95238 3.81618 3.60604 3.31607 2.94532 2.49798 1.98534 1.42172 0.823392 0.208903 -0.404117 -0.996611 -1.55151 -2.05312 -2.48693 -2.84295 -3.11562 -3.3059 -3.41937 -3.46509 -3.45502 -3.40284 -3.32317 -3.23068 -3.1396 -3.0626 -3.01054 -2.9915 -3.01044 -3.06869 -3.16381 -3.28916 -3.43454 -3.58651 -3.72905 -3.84568 -3.92094 -3.94384 -3.90993 -3.82034 -3.67855 -3.48964 -3.2593 -2.99351 -2.69881 -2.38089 
4.04637 4.11402 4.15199 4.14851 4.09215 3.97252 3.7809 3.51107 3.16125 2.73447 2.24084 1.69417 1.11033 0.507529 -0.0968596 -0.683982 -1.23688 -1.7398 -2.17763 -2.53865 -2.81484 -3.00541 -3.11522 -3.15351 -3.13294 -3.06829 -2.97541 -2.87024 -2.76823 -2.68306 -2.62644 -2.607 -2.63008 -2.69708 -2.80543 -2.94818 -3.11467 -3.29091 -3.46023 -3.60556 -3.71083 -3.76451 -3.7616 -3.70238 -3.58949 -3.42727 -3.22084 -2.97576 -2.69827 -2.39391 
4.07398 4.1537 4.20501 4.21642 4.17684 4.07608 3.90547 3.65857 3.33302 2.93079 2.46087 1.93631 1.37251 0.78719 0.197342 -0.378521 -0.923565 -1.42159 -1.85637 -2.21471 -2.4868 -2.6703 -2.7695 -2.79386 -2.75685 -2.67437 -2.56355 -2.44161 -2.3252 -2.229 -2.16551 -2.14388 -2.1697 -2.2444 -2.36519 -2.52472 -2.7118 -2.91184 -3.10753 -3.28124 -3.41636 -3.50101 -3.52975 -3.50206 -3.41982 -3.28667 -3.10722 -2.88663 -2.63082 -2.34522 
4.03527 4.12861 4.19471 4.22254 4.20143 4.12147 3.97409 3.75274 3.45453 3.08055 2.63865 2.14102 1.60243 1.03999 0.470282 -0.0885774 -0.619455 -1.10508 -1.52814 -1.8748 -2.13441 -2.30341 -2.38547 -2.39026 -2.33195 -2.22755 -2.09539 -1.95391 -1.82091 -1.71199 -1.64037 -1.61565 -1.64357 -1.72549 -1.85835 -2.03432 -2.24161 -2.46503 -2.68661 -2.88823 -3.05288 -3.16851 -3.22932 -3.23407 -3.184 -3.08211 -2.93251 -2.73999 -2.51015 -2.24829 
3.92807 4.03494 4.11598 4.16072 4.15898 4.10118 3.97892 3.78557 3.51775 3.17579 2.76634 2.30059 1.79245 1.25827 0.714144 0.178253 -0.331202 -0.795769 -1.19766 -1.52312 -1.76163 -1.90904 -1.9683 -1.94908 -1.86607 -1.73724 -1.58197 -1.41979 -1.26952 -1.14759 -1.0678 -1.04009 -1.0703 -1.15962 -1.30462 -1.49694 -1.72419 -1.97055 -2.21745 -2.44633 -2.63994 -2.78626 -2.87926 -2.91705 -2.90031 -2.83145 -2.71415 -2.55284 -2.35281 -2.11919 
3.74808 3.86681 3.96157 4.02252 4.04008 4.00505 3.90926 3.74603 3.51161 3.20558 2.83341 2.40511 1.93347 1.4338 0.921797 0.416336 -0.0631154 -0.497335 -0.86853 -1.16345 -1.37245 -1.49162 -1.52334 -1.47697 -1.36743 -1.21333 -1.03491 -0.852551 -0.68594 -0.552137 -0.465429 -0.435953 -0.469537 -0.567118 -0.724855 -0.933798 -1.18094 -1.44986 -1.72143 -1.97682 -2.19869 -2.37522 -2.50027 -2.57136 -2.58871 -2.55423 -2.47117 -2.34364 -2.17661 -1.97508 
3.49148 3.61892 3.72481 3.80005 3.83571 3.82306 3.75422 3.62254 3.42393 3.15732 2.82704 2.44183 2.01317 1.55526 1.08385 0.618568 0.179438 -0.214312 -0.54534 -0.801063 -0.972884 -1.05777 -1.05812 -0.982777 -0.846414 -0.667946 -0.468082 -0.267821 -0.0874318 0.0555781 0.146629 0.175516 0.136544 0.0291135 -0.142456 -0.36861 -0.635726 -0.926838 -1.22238 -1.50338 -1.75264 -1.95868 -2.11527 -2.21948 -2.27112 -2.27167 -2.22404 -2.13203 -2.00032 -1.83373 
3.15659 3.28841 3.40167 3.48811 3.53957 3.54785 3.50541 3.40574 3.24446 3.01997 2.73555 2.39858 2.01918 1.6109 1.18991 0.776071 0.389019 0.0470692 -0.233654 -0.441617 -0.569295 -0.614589 -0.580386 -0.475203 -0.313031 -0.112561 0.105442 0.319753 0.50982 0.657951 0.749491 0.774333 0.727043 0.607454 0.420411 0.176086 -0.111321 -0.42437 -0.743188 -1.04886 -1.3246 -1.55928 -1.74661 -1.88328 -1.96884 -2.00438 -1.99254 -1.93686 -1.84175 -1.71188 
2.74555 2.87643 2.99227 3.08581 3.14968 3.17633 3.15865 3.09032 2.96681 2.78603 2.55034 2.26577 1.9414 1.5907 1.23016 0.879141 0.556077 0.277631 0.0579673 -0.0931103 -0.169603 -0.170379 -0.0988737 0.0364975 0.22262 0.441602 0.673169 0.896328 1.09064 1.23854 1.32555 1.34187 1.28248 1.14772 0.943029 0.679188 0.370921 0.0360306 -0.305467 -0.634955 -0.936222 -1.19853 -1.41548 -1.58349 -1.70194 -1.77163 -1.79501 -1.77543 -1.71705 -1.62444 
2.26591 2.38984 2.50272 2.59833 2.67025 2.71163 2.7159 2.677 2.59034 2.45351 2.26798 2.03868 1.77421 1.48826 1.19722 0.919209 0.67089 0.466698 0.318268 0.233132 0.215169 0.264075 0.375685 0.541567 0.749519 0.982937 1.22267 1.44853 1.64064 1.78195 1.8585 1.86099 1.78498 1.63147 1.40649 1.12144 0.791503 0.434695 0.070974 -0.281604 -0.607496 -0.89622 -1.14127 -1.33893 -1.48848 -1.59059 -1.64757 -1.66266 -1.63985 -1.58363 
1.72884 1.83943 1.94325 2.03527 2.11007 2.16161 2.18396 2.17143 2.11947 2.02544 1.89009 1.71765 1.51684 1.30147 1.08727 0.89062 0.725941 0.60504 0.536616 0.525531 0.57311 0.67714 0.832253 1.02965 1.25789 1.50189 1.74428 1.96631 2.14926 2.27704 2.33654 2.31929 2.22159 2.04524 1.79692 1.48863 1.1359 0.75681 0.37103 -0.00419902 -0.353905 -0.667693 -0.939027 -1.16416 -1.34239 -1.47433 -1.56229 -1.6095 -1.61985 -1.59779 
1.15098 1.24176 1.33021 1.41255 1.48445 1.54083 1.57643 1.58608 1.56536 1.51159 1.42491 1.30944 1.17439 1.03332 0.900869 0.791312 0.716516 0.6854 0.703461 0.772646 0.891428 1.05536 1.25748 1.48816 1.73625 1.98806 2.22832 2.44039 2.60736 2.71462 2.75036 2.70725 2.58258 2.37908 2.10413 1.77032 1.39343 0.991434 0.583428 0.18575 -0.186983 -0.524319 -0.819776 -1.06966 -1.27342 -1.43174 -1.54704 -1.62264 -1.66242 -1.6709 
0.551301 0.616084 0.682893 0.749326 0.812235 0.867568 0.910883 0.937601 0.943591 0.926214 0.885376 0.825555 0.756506 0.691153 0.642738 0.623189 0.641657 0.704022 0.812451 0.965841 1.15965 1.387 1.63905 1.90498 2.17353 2.43188 2.66681 2.86411 3.00925 3.08965 3.09535 3.02051 2.8637 2.62874 2.32383 1.96209 1.55946 1.13359 0.702755 0.282585 -0.112364 -0.471611 -0.788753 -1.06025 -1.2858 -1.4663 -1.6044 -1.70361 -1.76796 -1.80211 
-0.0490594 -0.0159308 0.023334 0.0677894 0.115552 0.163703 0.20871 0.24669 0.273925 0.287946 0.28889 0.281915 0.277066 0.28639 0.321539 0.391981 0.504079 0.660647 0.860498 1.09945 1.3699 1.66244 1.96618 2.26891 2.55886 2.82369 3.05181 3.23149 3.35081 3.39956 3.37009 3.25852 3.06502 2.79473 2.45673 2.06472 1.63464 1.18363 0.729099 0.286297 -0.130042 -0.509436 -0.845584 -1.13518 -1.37828 -1.5761 -1.73167 -1.84883 -1.93188 -1.98574 
-0.626974 -0.630227 -0.623686 -0.606769 -0.58003 -0.545158 -0.504687 -0.461701 -0.419345 -0.379809 -0.342358 -0.300973 -0.245589 -0.1652 -0.0498338 0.107508 0.310441 0.558776 0.848055 1.17109 1.51726 1.87461 2.2302 2.57023 2.88224 3.15401 3.37513 3.53612 3.62786 3.64259 3.575 3.42343 3.19004 2.88156 2.50805 2.08381 1.62469 1.14719 0.66813 0.202709 -0.234074 -0.631665 -0.983894 -1.28775 -1.54371 -1.75348 -1.92056 -2.04927 -2.14433 -2.21104 
-1.16119 -1.20443 -1.23484 -1.25026 -1.24987 -1.23405 -1.20425 -1.16265 -1.11172 -1.05315 -0.985375 -0.901554 -0.791786 -0.64618 -0.456445 -0.217969 0.0702288 0.405103 0.779085 1.18213 1.60072 2.02046 2.42635 2.80298 3.13704 3.41617 3.63079 3.77325 3.83723 3.81774 3.71167 3.51937 3.24496 2.897 2.48672 2.02902 1.53961 1.03444 0.530357 0.0427246 -0.413285 -0.826929 -1.19212 -1.50617 -1.77006 -1.98606 -2.15829 -2.29171 -2.39159 -2.46377 
-1.6309 -1.71625 -1.78653 -1.83798 -1.86837 -1.87668 -1.86325 -1.82927 -1.77646 -1.70577 -1.61466 -1.49568 -1.33916 -1.13631 -0.880448 -0.569187 -0.203993 0.20945 0.660704 1.13708 1.62237 2.09989 2.55268 2.96375 3.31888 3.60542 3.81429 3.93923 3.97638 3.92377 3.78083 3.54962 3.23584 2.84957 2.40316 1.91211 1.39214 0.859144 0.3304 -0.178414 -0.651946 -1.07916 -1.45396 -1.77395 -2.04066 -2.25701 -2.42789 -2.55898 -2.6563 -2.7264 
-2.01921 -2.14723 -2.25884 -2.3487 -2.41315 -2.44978 -2.45771 -2.43713 -2.38892 -2.31315 -2.2063 -2.06042 -1.86613 -1.61565 -1.30377 -0.930123 -0.498358 -0.0165334 0.502343 1.0432 1.58741 2.11622 2.61084 3.05282 3.42701 3.72036 3.9241 4.03301 4.04515 3.96135 3.78397 3.51701 3.1674 2.74624 2.26654 1.7442 1.1952 0.63594 0.084271 -0.443729 -0.932338 -1.37015 -1.75092 -2.07246 -2.33685 -2.54774 -2.71083 -2.83272 -2.92033 -2.98107 
-2.31296 -2.48252 -2.6353 -2.76445 -2.86489 -2.93285 -2.96621 -2.96408 -2.9265 -2.85263 -2.73794 -2.57411 -2.35201 -2.06476 -1.70844 -1.2844 -0.798224 -0.260007 0.315014 0.909695 1.50331 2.07525 2.60515 3.07321 3.46343 3.76229 3.96117 4.0556 4.04516 3.93291 3.72413 3.42505 3.04378 2.59211 2.08333 1.53355 0.95925 0.377374 -0.193619 -0.737238 -1.23735 -1.68204 -2.0647 -2.38324 -2.64021 -2.84002 -2.98929 -3.0956 -3.16694 -3.21176 
-2.50305 -2.71121 -2.90325 -3.07087 -3.20771 -3.30859 -3.37025 -3.39071 -3.36914 -3.30377 -3.18916 -3.01664 -2.77729 -2.46498 -2.07683 -1.61562 -1.08851 -0.507302 0.110924 0.747297 1.37933 1.98488 2.54223 3.03041 3.43265 3.735 3.92886 4.01028 3.97993 3.84263 3.6061 3.27888 2.87033 2.39268 1.85941 1.28706 0.692466 0.0931979 -0.49186 -1.04607 -1.5529 -1.99987 -2.37984 -2.69065 -2.93521 -3.1187 -3.24871 -3.33388 -3.38338 -3.40681 
-2.58582 -2.82808 -3.05583 -3.25953 -3.43159 -3.56562 -3.65719 -3.70336 -3.70235 -3.65149 -3.54455 -3.37253 -3.12664 -2.80125 -2.39433 -1.90974 -1.35586 -0.745838 -0.0981848 0.566863 1.22544 1.85416 2.43023 2.93175 3.34127 3.64447 3.83268 3.90225 3.85466 3.69595 3.43568 3.08449 2.65302 2.15399 1.60117 1.01156 0.402271 -0.208621 -0.801956 -1.36109 -1.86923 -2.31342 -2.68591 -2.98434 -3.21184 -3.3743 -3.48025 -3.53944 -3.56234 -3.55982 
-2.56206 -2.83249 -3.09086 -3.32665 -3.53125 -3.69715 -3.81895 -3.89276 -3.91586 -3.88474 -3.79244 -3.62965 -3.38761 -3.06102 -2.64838 -2.15432 -1.58809 -0.96376 -0.300869 0.379362 1.05207 1.69298 2.27848 2.78597 3.1975 3.4984 3.6799 3.73852 3.67617 3.49971 3.21992 2.84906 2.39916 1.88365 1.31666 0.715513 0.097566 -0.518853 -1.1145 -1.67276 -2.17676 -2.61325 -2.9738 -3.25563 -3.46199 -3.59935 -3.67713 -3.70628 -3.69867 -3.66652 
-2.43688 -2.72862 -3.01141 -3.27406 -3.50722 -3.7025 -3.85367 -3.95595 -4.00568 -3.99853 -3.92695 -3.78135 -3.55287 -3.23634 -2.83055 -2.34052 -1.776 -1.15163 -0.487535 0.194456 0.868879 1.5109 2.09638 2.60227 3.01026 3.30542 3.47884 3.52703 3.45212 3.26133 2.96617 2.58008 2.11653 1.58972 1.01415 0.407426 -0.212903 -0.828603 -1.42059 -1.97217 -2.46664 -2.89072 -3.23528 -3.49685 -3.6786 -3.78749 -3.83382 -3.82981 -3.78877 -3.72439 
-2.21819 -2.52404 -2.82443 -3.10793 -3.36479 -3.58605 -3.76478 -3.89534 -3.97312 -3.99311 -3.94729 -3.82577 -3.61957 -3.3234 -2.9361 -2.46274 -1.91323 -1.30239 -0.650513 0.0203273 0.684461 1.31681 1.89302 2.38984 2.78872 3.07457 3.23832 3.27635 3.19072 2.98868 2.68217 2.28554 1.81342 1.28089 0.702693 0.0965505 -0.519969 -1.12891 -1.71132 -2.25057 -2.73031 -3.13742 -3.46225 -3.70046 -3.85482 -3.93267 -3.94527 -3.90605 -3.82989 -3.73189 
-1.91566 -2.2289 -2.54021 -2.8384 -3.11377 -3.3571 -3.56085 -3.7186 -3.82481 -3.87397 -3.8577 -3.7659 -3.58935 -3.32251 -2.96402 -2.5187 -1.99627 -1.41135 -0.784054 -0.136305 0.506383 1.11902 1.67729 2.15796 2.54244 2.81553 2.96794 2.99582 2.90107 2.69079 2.37709 1.97479 1.49941 0.966897 0.392097 -0.207373 -0.814119 -1.41039 -1.97744 -2.49902 -2.95917 -3.34505 -3.64668 -3.85884 -3.98371 -4.02896 -4.00668 -3.93156 -3.81992 -3.68832 
-1.53818 -1.85311 -2.16964 -2.47714 -2.76633 -3.02791 -3.25389 -3.43716 -3.57144 -3.65082 -3.66673 -3.60895 -3.46801 -3.23796 -2.91705 -2.50959 -2.02476 -1.4767 -0.884924 -0.270899 0.340369 0.924269 1.45681 1.91497 2.2802 2.53729 2.67677 2.69451 2.59214 2.37657 2.05978 1.65671 1.18346 0.656522 0.090898 -0.496011 -1.08709 -1.66492 -2.2112 -2.71011 -3.14608 -3.5065 -3.78143 -3.9651 -4.05906 -4.07109 -4.01398 -3.90354 -3.75747 -3.59367 
-1.0958 -1.40724 -1.72428 -2.03693 -2.33625 -2.61288 -2.85847 -3.06544 -3.22693 -3.33675 -3.38636 -3.36554 -3.2646 -3.07711 -2.80077 -2.4391 -2.00054 -1.49841 -0.951279 -0.379888 0.191529 0.739071 1.23928 1.66957 2.01153 2.24999 2.37532 2.38311 2.27461 2.05642 1.74026 1.341 0.874956 0.358966 -0.191932 -0.760675 -1.33056 -1.88467 -2.40526 -2.87686 -3.28419 -3.61494 -3.85965 -4.01267 -4.07498 -4.05419 -3.96358 -3.81982 -3.64185 -3.44875 
-0.599492 -0.90249 -1.21585 -1.53014 -1.83654 -2.12558 -2.38863 -2.6177 -2.80544 -2.94549 -3.02951 -3.04746 -2.98952 -2.84872 -2.62209 -2.31223 -1.92666 -1.47759 -0.982354 -0.460621 0.0645045 0.570003 1.03308 1.4317 1.7477 1.96592 2.07656 2.07489 1.9618 1.74343 1.43111 1.03947 0.584821 0.0841359 -0.447502 -0.993484 -1.5376 -2.06341 -2.55382 -2.99364 -3.36789 -3.66484 -3.87593 -3.99627 -4.02666 -3.97432 -3.85262 -3.67885 -3.47288 -3.25478 
-0.0621107 -0.352206 -0.658047 -0.970572 -1.28104 -1.57986 -1.85819 -2.10771 -2.32059 -2.49028 -2.60872 -2.66621 -2.65294 -2.56147 -2.38808 -2.13433 -1.80647 -1.41534 -0.976815 -0.509175 -0.034189 0.426043 0.849461 1.2146 1.5035 1.70109 1.79739 1.78733 1.67135 1.45505 1.14929 0.768236 0.328009 -0.154445 -0.664042 -1.18456 -1.70017 -2.19478 -2.65158 -3.05561 -3.39262 -3.65194 -3.82629 -3.91205 -3.91049 -3.82847 -3.67903 -3.47967 -3.25084 -3.01334 
0.50058 0.22715 -0.067659 -0.375074 -0.686479 -0.992236 -1.28334 -1.55119 -1.78755 -1.98564 -2.13765 -2.23442 -2.26621 -2.22516 -2.10676 -1.91119 -1.64317 -1.31196 -0.931807 -0.519625 -0.0958785 0.31832 0.701675 1.03331 1.29552 1.47332 1.55653 1.53974 1.42285 1.21091 0.914093 0.546028 0.12241 -0.340042 -0.82637 -1.3206 -1.80714 -2.2698 -2.69158 -3.05766 -3.35475 -3.57365 -3.70879 -3.75839 -3.72492 -3.61539 -3.44221 -3.22257 -2.9771 -2.72691 
1.07262 0.819084 0.538564 0.239479 -0.0696843 -0.379335 -0.680441 -0.964177 -1.22191 -1.44655 -1.63048 -1.76522 -1.84119 -1.84993 -1.78595 -1.64788 -1.43889 -1.16669 -0.843907 -0.486125 -0.112493 0.256886 0.601516 0.901135 1.13833 1.2982 1.37039 1.34908 1.23366 1.02845 0.742903 0.38992 -0.0154029 -0.456754 -0.919484 -1.38786 -1.84611 -2.27752 -2.66472 -2.99303 -3.25003 -3.4279 -3.52295 -3.53562 -3.47037 -3.3353 -3.14249 -2.90833 -2.65306 -2.39768 
1.63593 1.40502 1.1417 0.85401 0.550225 0.239767 -0.0683529 -0.365146 -0.641641 -0.890371 -1.10379 -1.27393 -1.39136 -1.44692 -1.43407 -1.35007 -1.19663 -0.980016 -0.7113 -0.404747 -0.0781908 0.249303 0.558066 0.828485 1.04345 1.18819 1.25214 1.2291 1.11783 0.921928 0.649973 0.314008 -0.0716427 -0.491281 -0.93069 -1.37425 -1.80562 -2.20732 -2.56168 -2.85423 -3.07332 -3.21232 -3.2691 -3.24616 -3.15021 -2.99145 -2.78271 -2.5397 -2.28168 -2.02896 
2.17367 1.9676 1.72404 1.45054 1.15508 0.846869 0.53489 0.228211 -0.0639607 -0.333809 -0.573474 -0.775091 -0.929327 -1.02652 -1.05935 -1.02389 -0.920585 -0.754323 -0.534691 -0.274645 0.0092942 0.299118 0.576017 0.821053 1.01746 1.15057 1.20966 1.1881 1.08401 0.900159 0.644185 0.327144 -0.0375785 -0.435119 -0.851708 -1.27157 -1.67753 -2.05142 -2.37539 -2.63525 -2.8201 -2.92428 -2.94697 -2.89229 -2.76884 -2.58902 -2.36753 -2.12054 -1.86631 -1.62389 
2.66973 2.49019 2.26846 2.01165 1.7273 1.42436 1.11177 0.798563 0.494148 0.206814 -0.0548145 -0.282593 -0.467409 -0.599491 -0.671034 -0.677151 -0.617179 -0.494726 -0.317966 -0.0985615 0.148269 0.405592 0.655486 0.879706 1.06186 1.1874 1.24545 1.22892 1.13526 0.966377 0.728858 0.432664 0.0900975 -0.284974 -0.679172 -1.07624 -1.45813 -1.80615 -2.1025 -2.33331 -2.48839 -2.56292 -2.55714 -2.47647 -2.33086 -2.13445 -1.90381 -1.65673 -1.41161 -1.18619 
3.10848 2.95649 2.75817 2.52011 2.24941 1.95468 1.64473 1.32854 1.01579 0.715473 0.437144 0.189426 -0.0188376 -0.178133 -0.280465 -0.320252 -0.295872 -0.209774 -0.0687984 0.116654 0.332647 0.563333 0.791695 1.0002 1.17284 1.29523 1.35631 1.34856 1.26871 1.11776 0.901183 0.627738 0.308526 -0.0436783 -0.41568 -0.79053 -1.14946 -1.47351 -1.74506 -1.95066 -2.08077 -2.13134 -2.10346 -2.00348 -1.8424 -1.63548 -1.40066 -1.15729 -0.925038 -0.721492 
3.47868 3.35425 3.18005 2.96215 2.7072 2.42341 2.1193 1.80386 1.48722 1.17908 0.889813 0.628606 0.404187 0.225594 0.10069 0.0354908 0.0323913 0.0899761 0.202641 0.361206 0.552982 0.763211 0.975791 1.17391 1.34198 1.46577 1.53405 1.53887 1.47623 1.34618 1.15301 0.904205 0.609563 0.280801 -0.0688208 -0.421638 -0.758414 -1.06015 -1.30953 -1.49359 -1.60342 -1.63565 -1.59205 -1.47968 -1.31019 -1.09956 -0.8665 -0.631373 -0.415065 -0.236144 
