-2.5
-3.88878 -3.83734 -3.74264 -3.60843 -3.43689 -3.22972 -2.98944 -2.7201 -2.42773 -2.11984 -1.80553 -1.49453 -1.19658 -0.920697 -0.674149 -0.462326 -0.287953 -0.150971 -0.0486699 0.0239433 0.0730394 0.104654 0.122957 0.130999 0.133794 0.138778 0.153772 0.185301 0.237545 0.311897 0.406797 0.518018 0.639138 0.762134 0.878227 0.978349 1.05389 1.09708 1.1012 1.06038 0.969146 0.822525 0.617241 0.352983 0.0325368 -0.337532 -0.747196 -1.18324 -1.62985 -2.07034 
-4.02192 -3.9521 -3.84277 -3.69988 -3.52818 -3.33115 -3.11199 -2.87455 -2.62392 -2.36612 -2.1083 -1.85794 -1.6223 -1.40785 -1.21933 -1.05968 -0.929406 -0.826514 -0.746788 -0.684272 -0.632461 -0.585791 -0.540994 -0.495285 -0.443388 -0.378187 -0.292893 -0.182612 -0.0452989 0.118025 0.303065 0.502769 0.707898 0.907723 1.09109 1.2469 1.36504 1.43696 1.45595 1.41718 1.31721 1.15342 0.924397 0.63141 0.278903 -0.124929 -0.568678 -1.0381 -1.5168 -1.98809 
-4.06874 -3.98376 -3.86349 -3.71496 -3.54512 -3.35962 -3.16278 -2.95862 -2.75148 -2.54606 -2.34762 -2.16137 -1.9921 -1.84361 -1.71807 -1.61585 -1.53513 -1.47193 -1.42049 -1.37391 -1.32542 -1.27005 -1.2053 -1.1283 -1.03338 -0.913724 -0.763482 -0.579259 -0.360991 -0.111952 0.16099 0.448098 0.737425 1.0156 1.2691 1.48472 1.6507 1.75745 1.79791 1.76778 1.66512 1.48972 1.2424 0.925962 0.546154 0.112569 -0.362131 -0.862788 -1.3726 -1.87501 
-4.02991 -3.93141 -3.80306 -3.65202 -3.48621 -3.31323 -3.13902 -2.96815 -2.80458 -2.6519 -2.51361 -2.39278 -2.2917 -2.21152 -2.15179 -2.11029 -2.08284 -2.06345 -2.04484 -2.01923 -1.97974 -1.92213 -1.8444 -1.74328 -1.61264 -1.44586 -1.23792 -0.986718 -0.693971 -0.364983 -0.00897384 0.361842 0.732984 1.08857 1.4128 1.69035 1.90777 2.05423 2.12205 2.10705 2.00827 1.82744 1.56786 1.23417 0.833197 0.375483 -0.125448 -0.65384 -1.19268 -1.72539 
-3.91135 -3.79869 -3.66308 -3.51162 -3.35204 -3.19261 -3.04078 -2.90215 -2.78074 -2.67934 -2.59994 -2.5436 -2.51023 -2.49841 -2.50508 -2.52545 -2.55301 -2.57984 -2.59721 -2.59661 -2.57128 -2.51774 -2.4342 -2.31668 -2.15853 -1.95325 -1.69641 -1.38702 -1.02831 -0.627347 -0.195426 0.253016 0.701197 1.13092 1.52424 1.86379 2.13444 2.32401 2.424 2.43004 2.34167 2.16199 1.8965 1.552 1.13652 0.661208 0.139968 -0.411318 -0.975611 -1.53604 
-3.72355 -3.59431 -3.44993 -3.29787 -3.14554 -3.00065 -2.87087 -2.76277 -2.68089 -2.62765 -2.60388 -2.60887 -2.64035 -2.69446 -2.76566 -2.8467 -2.92887 -3.00241 -3.05733 -3.08465 -3.07796 -3.03449 -2.95223 -2.82632 -2.64954 -2.41533 -2.11969 -1.76247 -1.34809 -0.885098 -0.386542 0.131226 0.649403 1.14773 1.60629 2.00584 2.32958 2.56399 2.69961 2.73161 2.65966 2.48769 2.22283 1.87399 1.45061 0.964271 0.428893 -0.139775 -0.724635 -1.30842 
-3.48015 -3.33082 -3.17447 -3.01935 -2.87297 -2.74238 -2.63424 -2.55483 -2.50912 -2.49966 -2.52656 -2.58768 -2.6789 -2.79413 -2.92558 -3.06374 -3.19788 -3.31667 -3.40911 -3.46607 -3.48175 -3.4538 -3.37959 -3.25329 -3.06707 -2.81414 -2.4907 -2.09713 -1.63876 -1.12526 -0.571086 0.00583638 0.585007 1.14438 1.66234 2.11792 2.49277 2.77205 2.94525 3.00692 2.95652 2.79835 2.54057 2.19375 1.76879 1.27763 0.734036 0.153649 -0.446251 -1.04805 
-3.19674 -3.02329 -2.85076 -2.68848 -2.54452 -2.42571 -2.33759 -2.28494 -2.27194 -2.30117 -2.3725 -2.48289 -2.62674 -2.79611 -2.98126 -3.17074 -3.35213 -3.51284 -3.64127 -3.72854 -3.76949 -3.76173 -3.70177 -3.58278 -3.39625 -3.13504 -2.79527 -2.37759 -1.88786 -1.33654 -0.739104 -0.114691 0.514858 1.12604 1.69579 2.20167 2.62392 2.94645 3.15767 3.25137 3.22653 3.08743 2.84268 2.5039 2.08319 1.593 1.04694 0.460679 -0.148395 -0.762466 
-2.88997 -2.68828 -2.49486 -2.32037 -2.1737 -2.06191 -1.98994 -1.96096 -1.97713 -2.03989 -2.14882 -2.30047 -2.48831 -2.70303 -2.93342 -3.16647 -3.38854 -3.58624 -3.74789 -3.86523 -3.93343 -3.94957 -3.90923 -3.80467 -3.62661 -3.36739 -3.02285 -2.59358 -2.08565 -1.50991 -0.882493 -0.223333 0.444751 1.09715 1.70965 2.25858 2.72299 3.08562 3.33381 3.46049 3.46396 3.34811 3.1215 2.79615 2.38503 1.90124 1.35847 0.7723 0.160124 -0.460205 
-2.57627 -2.34244 -2.12332 -1.93104 -1.77554 -1.66446 -1.60254 -1.5919 -1.63259 -1.72371 -1.8635 -2.04808 -2.27047 -2.52064 -2.78643 -3.05393 -3.3088 -3.53751 -3.72886 -3.87525 -3.97167 -4.01438 -3.9981 -3.91422 -3.75273 -3.50528 -3.1672 -2.73874 -2.2258 -1.63931 -0.995599 -0.315041 0.378966 1.06108 1.70624 2.28983 2.7899 3.18816 3.47095 3.63023 3.66347 3.57382 3.3694 3.06213 2.66553 2.19341 1.65961 1.0795 0.470339 -0.150088 
-2.27166 -2.00225 -1.75284 -1.53706 -1.3661 -1.24836 -1.18882 -1.18897 -1.24733 -1.36051 -1.52435 -1.73375 -1.9813 -2.25669 -2.54751 -2.83966 -3.11888 -3.37222 -3.5894 -3.76313 -3.88771 -3.95858 -3.96969 -3.91175 -3.77397 -3.54722 -3.22613 -2.81033 -2.30524 -1.72145 -1.07515 -0.386729 0.320225 1.02 1.68703 2.29604 2.82429 3.25262 3.56641 3.75665 3.81978 3.75802 3.57874 3.29351 2.916 2.46055 1.94116 1.37296 0.772878 0.158564 
-1.99055 -1.68276 -1.39887 -1.15407 -0.960834 -0.828556 -0.76267 -0.764519 -0.831602 -0.958554 -1.13856 -1.36452 -1.62824 -1.91921 -2.22521 -2.53265 -2.82822 -3.10031 -3.33948 -3.53824 -3.6901 -3.7897 -3.83046 -3.80252 -3.69444 -3.49623 -3.20163 -2.80943 -2.32424 -1.75601 -1.12037 -0.437342 0.269666 0.974947 1.65276 2.27745 2.82575 3.27774 3.61793 3.83637 3.92834 3.89504 3.74292 3.48292 3.12857 2.6944 2.19455 1.6438 1.0587 0.45656 
-1.74521 -1.39694 -1.07497 -0.795995 -0.573819 -0.418938 -0.33748 -0.330956 -0.396356 -0.526969 -0.713718 -0.947151 -1.21791 -1.51543 -1.82793 -2.14284 -2.44845 -2.73457 -2.9922 -3.21343 -3.39112 -3.51925 -3.59088 -3.59587 -3.5222 -3.35906 -3.09918 -2.74028 -2.28594 -1.74509 -1.13249 -0.467438 0.227234 0.926172 1.60374 2.23423 2.79408 3.26277 3.62402 3.8669 3.98566 3.98039 3.85652 3.62418 3.29642 2.8877 2.41207 1.88391 1.31933 0.735164 
-1.54512 -1.15505 -0.792078 -0.474343 -0.216965 -0.0316079 0.0747313 0.100082 0.0475298 -0.0754598 -0.258255 -0.489239 -0.757631 -1.05292 -1.36429 -1.68066 -1.99191 -2.28866 -2.56185 -2.80324 -3.0052 -3.1612 -3.26414 -3.3039 -3.26809 -3.14514 -2.92673 -2.60937 -2.19536 -1.69239 -1.11404 -0.478506 0.192303 0.873653 1.5403 2.16671 2.72921 3.20694 3.58299 3.84564 3.98819 4.00964 3.91438 3.71151 3.41333 3.03384 2.58681 2.08607 1.54714 0.986344 
-1.39621 -0.963764 -0.557607 -0.197202 0.101058 0.324294 0.464507 0.519013 0.490573 0.386858 0.219309 0.00104493 -0.255784 -0.540789 -0.844593 -1.1578 -1.47124 -1.77572 -2.06201 -2.32158 -2.54639 -2.72946 -2.86367 -2.93919 -2.94357 -2.86458 -2.69293 -2.42384 -2.0581 -1.60199 -1.06768 -0.472099 0.163943 0.81663 1.46144 2.07329 2.62869 3.10679 3.49037 3.76712 3.92955 3.97568 3.90877 3.7368 3.47105 3.12471 2.71091 2.24274 1.73487 1.20288 
-1.30077 -0.826199 -0.375505 0.0306354 0.374614 0.642324 0.824645 0.917947 0.924292 0.851027 0.70967 0.513957 0.276898 0.00867515 -0.282703 -0.58894 -0.901261 -1.21049 -1.5073 -1.78294 -2.02898 -2.238 -2.40292 -2.51435 -2.5601 -2.52752 -2.40638 -2.19061 -1.87957 -1.47809 -0.996831 -0.451306 0.138981 0.751533 1.36291 1.94892 2.48668 2.95567 3.33864 3.62297 3.80054 3.86849 3.829 3.68883 3.45807 3.14881 2.77321 2.34334 1.87273 1.37592 
-1.25698 -0.741347 -0.245677 0.208267 0.601731 0.919365 1.15082 1.29129 1.34178 1.30876 1.20313 1.03828 0.827316 0.580449 0.305204 0.00935974 -0.298551 -0.609446 -0.913972 -1.20322 -1.46843 -1.70175 -1.89604 -2.04254 -2.12961 -2.14446 -2.0761 -1.91746 -1.66665 -1.32708 -0.907756 -0.422479 0.110994 0.671846 1.2381 1.78685 2.29618 2.74619 3.11995 3.40474 3.59201 3.67816 3.66436 3.55614 3.36227 3.09355 2.76085 2.37506 1.94836 1.49394 
-1.259 -0.704236 -0.16418 0.338442 0.783792 1.15526 1.44115 1.63525 1.73709 1.75178 1.68882 1.56055 1.37987 1.15761 0.901619 0.619359 0.319054 0.00958622 -0.299693 -0.599747 -0.881595 -1.13702 -1.35866 -1.53838 -1.66551 -1.72753 -1.71325 -1.61487 -1.42932 -1.15844 -0.80937 -0.393857 0.0724126 0.570637 1.08064 1.58112 2.05148 2.47275 2.82856 3.10637 3.29741 3.39748 3.40684 3.32981 3.17383 2.94821 2.66239 2.32587 1.94935 1.54454 
-1.29736 -0.706375 -0.12374 0.426961 0.92485 1.35202 1.69528 1.94676 2.10412 2.17057 2.15386 2.06525 1.91758 1.72248 1.48841 1.2226 0.932907 0.627954 0.317014 0.00919942 -0.286374 -0.561202 -0.807608 -1.01798 -1.18302 -1.29122 -1.33161 -1.29586 -1.17962 -0.98306 -0.711217 -0.373587 0.0164647 0.442431 0.886209 1.32841 1.75001 2.13327 2.46266 2.72602 2.91459 3.02375 3.05295 3.0054 2.88718 2.7061 2.47 2.18688 1.86582 1.517 
-1.35991 -0.736722 -0.11475 0.481647 1.03056 1.51272 1.91326 2.22236 2.43561 2.55429 2.58461 2.53699 2.42409 2.25813 2.04817 1.80131 1.525 1.22757 0.918141 0.605745 0.299622 0.00851188 -0.259668 -0.497825 -0.698325 -0.851237 -0.946099 -0.974111 -0.929703 -0.811318 -0.62181 -0.36828 -0.0615918 0.284244 0.653422 1.02871 1.3929 1.72973 2.02476 2.26643 2.4462 2.55922 2.60429 2.58358 2.50188 2.36545 2.18054 1.95354 1.6919 1.40407 
-1.43324 -0.783271 -0.127033 0.510379 1.10601 1.63911 2.0931 2.45629 2.72243 2.89121 2.96753 2.9609 2.88359 2.74805 2.56385 2.33804 2.07758 1.79051 1.48568 1.172 0.858757 0.554759 0.26786 0.00465535 -0.228728 -0.424129 -0.57192 -0.663075 -0.690937 -0.652296 -0.547829 -0.382187 -0.163642 0.0964324 0.384686 0.686224 0.985877 1.26907 1.52265 1.7359 1.90068 2.0121 2.06848 2.07108 2.02349 1.93041 1.7966 1.62685 1.42676 1.20304 
-1.50496 -0.83538 -0.152209 0.518799 1.15372 1.73052 2.23114 2.64236 2.95637 3.17148 3.2913 3.32436 3.28234 3.17767 3.02022 2.817 2.57453 2.3004 2.00314 1.6915 1.37465 1.06113 0.75843 0.472812 0.209433 -0.0252544 -0.222874 -0.374539 -0.472771 -0.512881 -0.493479 -0.416806 -0.288528 -0.117323 0.086016 0.309066 0.538848 0.762653 0.968805 1.14762 1.29157 1.3959 1.4586 1.48022 1.46324 1.41089 1.32651 1.21329 1.07494 0.916298 
-1.56645 -0.886048 -0.185029 0.510382 1.17549 1.78725 2.32641 2.7784 3.13404 3.39031 3.54961 3.61947 3.61094 3.5362 3.40533 3.22526 3.0021 2.74297 2.456 2.1496 1.83248 1.51263 1.19711 0.89196 0.601926 0.332138 0.0893871 -0.118072 -0.282332 -0.397519 -0.46038 -0.470888 -0.432172 -0.350227 -0.233259 -0.0911432 0.065439 0.225778 0.379846 0.519147 0.636955 0.728826 0.792635 0.828349 0.837504 0.822055 0.783883 0.724604 0.646112 0.551344 
-1.61191 -0.929381 -0.219472 0.49125 1.17748 1.81531 2.38445 2.86917 3.25908 3.55 3.74323 3.84537 3.86679 3.81937 3.71321 3.55522 3.35118 3.10781 2.83283 2.53411 2.2196 1.89654 1.57149 1.25026 0.937506 0.637632 0.355875 0.0992967 -0.124284 -0.308217 -0.447711 -0.5407 -0.587937 -0.592832 -0.561036 -0.499867 -0.417651 -0.323008 -0.224193 -0.128366 -0.0412918 0.0330876 0.092698 0.137123 0.16712 0.183529 0.186889 0.177276 0.154811 0.120556 
-1.63364 -0.956137 -0.245164 0.472482 1.17103 1.8259 2.416 2.92467 3.34053 3.65843 3.87873 4.00722 4.05362 4.0294 3.9446 3.80603 3.61927 3.39073 3.12774 2.8376 2.52749 2.20395 1.8729 1.53973 1.2089 0.884602 0.570967 0.273524 -0.000640359 -0.244627 -0.452536 -0.6206 -0.747445 -0.83407 -0.883681 -0.901088 -0.892259 -0.863675 -0.821733 -0.772137 -0.719542 -0.667222 -0.617017 -0.569534 -0.524661 -0.48237 -0.443337 -0.409064 -0.381058 -0.360058 
-1.62065 -0.954039 -0.248991 0.46762 1.16976 1.83244 2.434 2.95716 3.38979 3.72602 3.96547 4.11323 4.17845 4.17216 4.10417 3.9812 3.80861 3.5926 3.34014 3.05799 2.7528 2.43058 2.09669 1.75598 1.41244 1.07 0.732215 0.403239 0.088842 -0.204481 -0.470272 -0.703501 -0.901013 -1.06166 -1.18639 -1.27761 -1.339 -1.37491 -1.38981 -1.38787 -1.37251 -1.34618 -1.31032 -1.26551 -1.21208 -1.15062 -1.08286 -1.01176 -0.940334 -0.871012 
-1.56127 -0.9105 -0.217783 0.490124 1.18717 1.84824 2.45142 2.97909 3.41871 3.76392 4.01382 4.17298 4.25004 4.25557 4.19908 4.08704 3.92469 3.71804 3.47374 3.19821 2.89772 2.5779 2.24368 1.89946 1.54871 1.19483 0.840886 0.490097 0.146742 -0.183786 -0.495139 -0.781577 -1.03861 -1.26331 -1.45459 -1.61268 -1.73908 -1.83603 -1.90612 -1.9519 -1.97548 -1.97833 -1.96129 -1.92476 -1.86921 -1.79574 -1.70697 -1.60704 -1.50039 -1.39098 
-1.44532 -0.814642 -0.140204 0.551589 1.23495 1.88492 2.47971 3.00167 3.43815 3.7826 4.03383 4.19604 4.27747 4.28825 4.23743 4.13121 3.9747 3.77381 3.535 3.26448 2.96829 2.65175 2.31947 1.97543 1.62265 1.26396 0.90186 0.538811 0.177862 -0.177099 -0.52059 -0.846828 -1.15054 -1.42744 -1.6748 -1.89091 -2.07525 -2.22809 -2.35016 -2.4424 -2.50549 -2.53984 -2.54553 -2.5226 -2.47133 -2.39312 -2.29137 -2.17118 -2.03824 -1.89792 
-1.26562 -0.658705 -0.0080513 0.660544 1.32184 1.95141 2.52787 3.03391 3.45711 3.79098 4.03431 4.19112 4.26933 4.2786 4.22747 4.12179 3.96663 3.76789 3.53201 3.2651 2.97301 2.66085 2.33291 1.99278 1.64301 1.28593 0.923369 0.557121 0.18929 -0.177636 -0.539592 -0.891514 -1.228 -1.54398 -1.83548 -2.09919 -2.33285 -2.53492 -2.70434 -2.84047 -2.94253 -3.00976 -3.04133 -3.03671 -2.99578 -2.91999 -2.81332 -2.68165 -2.53174 -2.37015 
-1.01866 -0.438651 0.183186 0.821932 1.4532 2.05341 2.60195 3.08219 3.48224 3.796 4.02245 4.16561 4.23315 4.23431 4.17699 4.06672 3.90863 3.70879 3.4737 3.20944 2.92176 2.61552 2.29471 1.96249 1.62095 1.27179 0.91624 0.555336 0.190386 -0.177183 -0.544714 -0.908441 -1.2636 -1.60495 -1.92781 -2.22771 -2.50094 -2.7444 -2.95538 -3.1317 -3.27114 -3.37167 -3.43143 -3.44907 -3.42394 -3.35732 -3.25348 -3.11894 -2.96132 -2.7882 
-0.705363 -0.154839 0.433755 1.03663 1.63054 2.19309 2.70478 3.14998 3.51767 3.80239 4.00356 4.12534 4.17528 4.16212 4.09311 3.97351 3.80872 3.60508 3.36924 3.10732 2.82494 2.52674 2.21634 1.89644 1.56857 1.23378 0.892566 0.545197 0.192133 -0.166087 -0.527898 -0.890827 -1.25125 -1.60451 -1.94582 -2.27004 -2.57244 -2.84862 -3.09443 -3.30627 -3.48049 -3.61374 -3.70304 -3.74601 -3.7413 -3.68984 -3.59599 -3.46669 -3.31022 -3.13499 
-0.331001 0.188101 0.739757 1.30154 1.85165 2.36917 2.83604 3.23794 3.56502 3.81272 3.98108 4.0746 4.10071 4.06767 3.98205 3.84903 3.67446 3.46504 3.22764 2.96842 2.69289 2.40542 2.10922 1.80644 1.49794 1.18406 0.864452 0.538521 0.205814 -0.134054 -0.480477 -0.832002 -1.18609 -1.53905 -1.88661 -2.2236 -2.54471 -2.8446 -3.11798 -3.35994 -3.56548 -3.72994 -3.84908 -3.91939 -3.93872 -3.90748 -3.82992 -3.71318 -3.56599 -3.3974 
0.0949857 0.581434 1.09333 1.60984 2.11082 2.57714 2.99245 3.34406 3.62353 3.82744 3.95666 4.01609 4.01312 3.95546 3.8491 3.69939 3.51277 3.29639 3.05735 2.80189 2.53537 2.26185 1.98405 1.70347 1.42024 1.13382 0.84295 0.54605 0.241656 -0.0716052 -0.394132 -0.725433 -1.06385 -1.40651 -1.74987 -2.08923 -2.41926 -2.73414 -3.02771 -3.29398 -3.52672 -3.71996 -3.86819 -3.96678 -4.01269 -4.00569 -3.94965 -3.85175 -3.72096 -3.56676 
0.559257 1.01259 1.48291 1.95113 2.399 2.80939 3.16795 3.46382 3.69024 3.84509 3.93024 3.95107 3.91492 3.8289 3.69863 3.5299 3.32985 3.10611 2.86609 2.61605 2.36122 2.10525 1.8503 1.59715 1.34507 1.09254 0.837255 0.57654 0.307818 0.0286444 -0.262447 -0.565967 -0.881163 -1.20585 -1.53703 -1.87047 -2.20114 -2.5232 -2.83001 -3.11478 -3.37017 -3.58901 -3.76462 -3.89137 -3.96532 -3.98542 -3.95501 -3.88104 -3.77254 -3.63924 
1.04577 1.46627 1.89423 2.31242 2.70465 3.05599 3.35426 3.59066 3.76029 3.86248 3.90018 3.8793 3.8071 3.69009 3.53376 3.34467 3.1307 2.90001 2.6603 2.41787 2.17776 1.94318 1.71565 1.49512 1.2799 1.06738 0.854093 0.636152 0.409762 0.171326 -0.0817584 -0.351043 -0.636711 -0.937357 -1.25045 -1.57204 -1.8973 -2.22043 -2.53461 -2.83251 -3.10594 -3.34675 -3.54736 -3.70131 -3.80379 -3.8528 -3.85093 -3.80474 -3.72312 -3.61587 
1.53568 1.92434 2.31023 2.67803 3.01369 3.3046 3.5409 3.71601 3.82699 3.87474 3.86333 3.79918 3.68937 3.53994 3.3566 3.14684 2.91934 2.68281 2.44526 2.21302 1.99087 1.78156 1.58589 1.40289 1.22982 1.06287 0.897303 0.727935 0.54965 0.357618 0.148042 -0.0817034 -0.332739 -0.604449 -0.894839 -1.20025 -1.5159 -1.83587 -2.15306 -2.45968 -2.74693 -3.00609 -3.22906 -3.40871 -3.53941 -3.61819 -3.64671 -3.63093 -3.57944 -3.50197 
2.00886 2.36721 2.71227 3.03062 3.31034 3.54122 3.71579 3.82974 3.88218 3.87557 3.81511 3.70766 3.56001 3.37799 3.16787 2.93816 2.69836 2.45776 2.22465 2.00539 1.8045 1.62418 1.46448 1.32341 1.19713 1.08055 0.967558 0.85159 0.726134 0.585074 0.423368 0.237302 0.0248264 -0.214191 -0.478264 -0.764026 -1.06673 -1.38027 -1.69712 -2.00895 -2.30663 -2.58114 -2.82406 -3.02778 -3.18598 -3.29473 -3.35463 -3.37086 -3.35154 -3.3062 
2.44486 2.77465 3.08087 3.35184 3.57772 3.75067 3.86558 3.92042 3.91631 3.85727 3.74951 3.6002 3.41583 3.20231 2.96682 2.71887 2.46879 2.22643 2.00038 1.797 1.62052 1.47258 1.35241 1.25699 1.18131 1.1189 1.06226 1.00338 0.934291 0.847563 0.736894 0.597481 0.42638 0.222775 -0.0122583 -0.275557 -0.562349 -0.866275 -1.17943 -1.49323 -1.7984 -2.08574 -2.34657 -2.57285 -2.75773 -2.89632 -2.98804 -3.03712 -3.05105 -3.039 
2.82417 3.12692 3.39665 3.62315 3.79853 3.91713 3.97614 3.97569 3.91882 3.81096 3.65918 3.4708 3.25212 3.00953 2.75122 2.48768 2.23002 1.98867 1.77249 1.58783 1.43863 1.32595 1.24818 1.20123 1.17889 1.17333 1.17559 1.17618 1.16571 1.1354 1.07771 0.986787 0.858863 0.692529 0.488581 0.250143 -0.0178422 -0.308807 -0.614776 -0.927213 -1.23684 -1.53443 -1.81104 -2.05825 -2.26872 -2.43668 -2.56025 -2.64244 -2.68992 -2.71144 
3.13021 3.40655 3.6419 3.8272 3.95616 4.0251 4.03327 3.98278 3.87839 3.72672 3.53545 3.3119 3.06257 2.79456 2.51702 2.24135 1.97943 1.74221 1.53881 1.37557 1.25614 1.18099 1.14768 1.15107 1.18373 1.23647 1.2989 1.36008 1.40919 1.43617 1.43229 1.39074 1.30702 1.17925 1.00813 0.79691 0.550743 0.276133 -0.0192069 -0.326969 -0.637961 -0.94297 -1.23293 -1.49901 -1.73348 -1.92977 -2.08462 -2.19961 -2.28037 -2.33512 
3.35049 3.59946 3.8016 3.94862 4.03546 4.06002 4.0233 3.92906 3.78347 3.59403 3.36872 3.11499 2.83982 2.55113 2.25888 1.9753 1.71292 1.48319 1.29547 1.15611 1.06843 1.03237 1.04469 1.09919 1.18731 1.29853 1.42108 1.54265 1.65105 1.73504 1.78482 1.79273 1.75369 1.66556 1.52905 1.34752 1.12608 0.870964 0.58949 0.289636 -0.0196631 -0.329157 -0.629634 -0.91207 -1.16838 -1.39132 -1.57627 -1.72318 -1.83667 -1.92465 
3.47801 3.69717 3.86562 3.97612 4.02451 4.00983 3.93433 3.80303 3.62305 3.40236 3.14909 2.87096 2.57568 2.27192 1.97025 1.68354 1.42488 1.20617 1.03696 0.923595 0.869127 0.872983 0.931161 1.03652 1.17941 1.34808 1.5295 1.71009 1.87643 2.01626 2.11884 2.17587 2.18189 2.13456 2.03451 1.88494 1.69075 1.45782 1.19308 0.904129 0.599615 0.288723 -0.0192385 -0.315138 -0.590614 -0.837901 -1.05127 -1.22928 -1.37576 -1.4984 
3.51034 3.69706 3.8302 3.90433 3.91644 3.86654 3.7577 3.5956 3.38776 3.14221 2.86725 2.57106 2.26203 1.9494 1.6441 1.35943 1.10892 0.904789 0.756759 0.671171 0.650834 0.694718 0.798158 0.953154 1.1491 1.37317 1.61121 1.84855 2.07073 2.26466 2.41892 2.52475 2.57627 2.57075 2.50853 2.39253 2.22744 2.01889 1.77336 1.49805 1.20135 0.892247 0.579966 0.273761 -0.0177821 -0.286666 -0.526836 -0.736121 -0.917409 -1.07755 
3.44858 3.6011 3.6974 3.7346 3.71125 3.62847 3.49006 3.30199 3.07167 2.80692 2.51627 2.20841 1.89217 1.57707 1.27415 0.99687 0.758987 0.572927 0.448536 0.392143 0.406352 0.489753 0.637129 0.839764 1.08627 1.36291 1.65464 1.94595 2.22158 2.46775 2.67248 2.82647 2.92333 2.95984 2.93597 2.85436 2.71956 2.53703 2.31281 2.05364 1.76758 1.46333 1.15001 0.836905 0.532564 0.244523 -0.0217831 -0.263722 -0.482605 -0.683645 
3.29705 3.41455 3.47326 3.47325 3.41494 3.30062 3.13477 2.92356 2.67425 2.39461 2.09341 1.77962 1.46225 1.15083 0.856134 0.591449 0.370535 0.205872 0.107342 0.0812486 0.130035 0.252006 0.441528 0.689346 0.983512 1.30962 1.65193 1.99433 2.32087 2.6172 2.87066 3.07131 3.21227 3.28993 3.30396 3.25674 3.15273 2.99722 2.7959 2.555 2.28213 1.9857 1.67464 1.35799 1.04357 0.737697 0.444978 0.168582 -0.090775 -0.335936 
3.06331 3.14574 3.16696 3.13006 3.03763 2.89303 2.70126 2.46863 2.20255 1.91112 1.60327 1.28804 0.974577 0.672105 0.390836 0.143479 -0.05651 -0.196786 -0.267544 -0.262529 -0.179431 -0.0201078 0.209569 0.500009 0.83894 1.2115 1.60146 1.99203 2.36666 2.71035 3.00979 3.25449 3.43711 3.55372 3.6038 3.58963 3.51563 3.38703 3.2092 2.98794 2.73035 2.44445 2.13872 1.82125 1.49829 1.17493 0.855285 0.543101 0.241155 -0.050512 
2.75777 2.8056 2.79019 2.71732 2.59187 2.41834 2.20211 1.94977 1.66912 1.36862 1.05729 0.744281 0.43875 0.149538 -0.113957 -0.339966 -0.515701 -0.629113 -0.670552 -0.63392 -0.516972 -0.321551 -0.0535238 0.277411 0.658734 1.07518 1.50996 1.94564 2.365 2.75242 3.09402 3.37887 3.59931 3.75119 3.83396 3.84992 3.80353 3.70009 3.54477 3.34303 3.10155 2.82787 2.52943 2.21247 1.8815 1.54063 1.19389 0.845633 0.5004 0.161214 
2.39324 2.40724 2.35659 2.24918 2.09206 1.89103 1.65201 1.38204 1.08931 0.782551 0.470944 0.163617 -0.130467 -0.402762 -0.644723 -0.845905 -0.994461 -1.07893 -1.08996 -1.02144 -0.870927 -0.640077 -0.334703 0.0353516 0.457222 0.915105 1.39162 1.86869 2.32849 2.75491 3.13362 3.45339 3.70639 3.88845 3.9991 4.04077 4.01812 3.93654 3.80114 3.61713 3.39087 3.1291 2.8376 2.52059 2.18115 1.82275 1.44942 1.06609 0.678708 0.292852 
1.98435 1.96549 1.88128 1.74116 1.55403 1.32726 1.06755 0.782408 0.480372 0.170292 -0.138495 -0.436839 -0.716062 -0.968017 -1.18512 -1.35843 -1.47731 -1.53101 -1.51036 -1.40893 -1.22404 -0.957312 -0.614733 -0.206533 0.253954 0.750358 1.26473 1.77846 2.27324 2.73262 3.14204 3.49013 3.76912 3.97494 4.10737 4.16914 4.16515 4.10096 3.98167 3.81231 3.59878 3.3465 3.05929 2.73982 2.39037 2.01408 1.61513 1.19896 0.772457 0.343 
1.54633 1.49568 1.37972 1.209 0.994024 0.743849 0.466062 0.168561 -0.139889 -0.450263 -0.753071 -1.03933 -1.30061 -1.52928 -1.71874 -1.86152 -1.94826 -1.96869 -1.91366 -1.77672 -1.55536 -1.25153 -0.871659 -0.426493 0.070126 0.601302 1.14862 1.6931 2.21615 2.70118 3.1336 3.50218 3.79937 4.02143 4.16857 4.24387 4.2526 4.20051 4.09267 3.93395 3.72936 3.48256 3.19566 2.87038 2.50865 2.11371 1.69013 1.24393 0.782697 0.314819 
