-2.5
-0.57364 -0.860517 -1.18449 -1.53496 -1.90166 -2.2732 -2.63893 -2.98874 -3.31287 -3.60374 -3.85445 -4.05985 -4.21511 -4.31493 -4.35504 -4.33406 -4.25498 -4.12421 -3.95057 -3.74369 -3.51402 -3.2714 -3.02491 -2.78305 -2.55234 -2.33825 -2.14403 -1.97098 -1.81865 -1.68405 -1.56251 -1.44724 -1.32998 -1.20178 -1.05338 -0.877044 -0.667658 -0.424705 -0.152942 0.140772 0.447785 0.759343 1.06634 1.35927 1.62972 1.86923 2.07081 2.22724 2.32936 2.36738 
-0.594629 -0.86898 -1.17912 -1.51475 -1.86595 -2.22207 -2.57348 -2.91115 -3.22633 -3.51214 -3.76195 -3.97026 -4.13131 -4.23898 -4.28875 -4.27922 -4.21356 -4.09833 -3.9425 -3.7558 -3.54866 -3.33084 -3.11131 -2.89827 -2.69801 -2.51567 -2.35419 -2.21463 -2.09622 -1.9958 -1.90847 -1.82732 -1.74392 -1.64909 -1.53327 -1.38817 -1.2078 -0.990223 -0.73892 -0.460136 -0.162169 0.146408 0.456602 0.758805 1.04438 1.30454 1.5319 1.71936 1.85832 1.93933 
-0.536958 -0.795459 -1.08926 -1.40927 -1.74608 -2.0895 -2.43047 -2.76067 -3.07201 -3.35801 -3.61198 -3.82776 -3.99876 -4.1184 -4.18204 -4.1882 -4.14007 -4.04433 -3.90999 -3.74687 -3.56536 -3.37512 -3.18496 -3.00282 -2.83471 -2.68544 -2.55764 -2.45208 -2.36772 -2.30125 -2.24761 -2.19986 -2.14959 -2.08757 -2.00427 -1.89108 -1.74125 -1.5514 -1.32339 -1.06255 -0.776724 -0.474222 -0.163894 0.144607 0.442498 0.720709 0.971498 1.18776 1.3614 1.48346 
-0.40245 -0.641932 -0.916103 -1.21794 -1.53932 -1.87076 -2.20359 -2.52979 -2.84148 -3.13211 -3.39451 -3.62171 -3.80653 -3.9422 -4.02391 -4.04995 -4.02338 -3.95086 -3.8414 -3.70486 -3.55154 -3.39104 -3.232 -3.08207 -2.94706 -2.8314 -2.73748 -2.66581 -2.61512 -2.58202 -2.5614 -2.5464 -2.52883 -2.49962 -2.4493 -2.36891 -2.25085 -2.09043 -1.88791 -1.64756 -1.37667 -1.08321 -0.775859 -0.46422 -0.157118 0.136161 0.407538 0.649687 0.854799 1.01457 
-0.195659 -0.41346 -0.664972 -0.945527 -1.24896 -1.56702 -1.8917 -2.2152 -2.52952 -2.82755 -3.10123 -3.3428 -3.54474 -3.70005 -3.8037 -3.85353 -3.85227 -3.80641 -3.72486 -3.61746 -3.49442 -3.36525 -3.23846 -3.12147 -3.01988 -2.93784 -2.87752 -2.8393 -2.82173 -2.82148 -2.83352 -2.85122 -2.86658 -2.87063 -2.85385 -2.80682 -2.72125 -2.59139 -2.41598 -2.1982 -1.94473 -1.66313 -1.36182 -1.05024 -0.737219 -0.432204 -0.143602 0.12079 0.353176 0.546005 
0.075606 -0.118409 -0.344841 -0.601343 -0.884055 -1.18634 -1.50104 -1.82079 -2.13739 -2.44302 -2.72871 -2.98608 -3.20725 -3.38488 -3.51353 -3.5904 -3.6176 -3.60129 -3.55013 -3.47388 -3.38262 -3.28579 -3.1918 -3.1079 -3.03955 -2.99073 -2.9635 -2.95819 -2.97333 -3.00572 -3.05044 -3.10102 -3.14958 -3.18707 -3.20383 -3.19012 -3.13716 -3.03831 -2.89105 -2.69745 -2.46346 -2.19624 -1.90385 -1.59553 -1.28004 -0.966987 -0.665248 -0.383202 -0.128767 0.0913392 
0.401327 0.232714 0.033199 -0.196978 -0.45636 -0.740281 -1.04255 -1.3561 -1.67258 -1.98366 -2.27987 -2.55249 -2.79326 -2.99434 -3.14978 -3.25587 -3.31385 -3.32924 -3.31032 -3.26666 -3.20819 -3.14426 -3.08326 -3.03229 -2.99684 -2.98077 -2.98611 -3.01319 -3.06057 -3.12518 -3.20214 -3.28512 -3.36634 -3.4367 -3.48648 -3.50567 -3.48509 -3.41739 -3.29898 -3.13085 -2.91814 -2.66755 -2.38681 -2.08486 -1.77049 -1.45362 -1.14369 -0.849484 -0.578989 -0.338171 
0.769463 0.627401 0.456123 0.254002 0.0202395 -0.242685 -0.529723 -0.834038 -1.14714 -1.46051 -1.76456 -2.05042 -2.3095 -2.53352 -2.71595 -2.85208 -2.94199 -2.99031 -3.00472 -2.99445 -2.96924 -2.93843 -2.91029 -2.89184 -2.88848 -2.90396 -2.94034 -2.99804 -3.07572 -3.17054 -3.2778 -3.39134 -3.50358 -3.60542 -3.68715 -3.73856 -3.75009 -3.71382 -3.62516 -3.48408 -3.29479 -3.06344 -2.79726 -2.50502 -2.19576 -1.87999 -1.5676 -1.26749 -0.987529 -0.733078 
1.16566 1.0508 0.908566 0.7357 0.529439 0.290084 0.0213276 -0.270355 -0.576583 -0.888945 -1.1979 -1.49442 -1.76968 -2.01505 -2.2235 -2.38928 -2.51117 -2.5927 -2.64067 -2.66393 -2.67186 -2.67353 -2.67699 -2.68899 -2.71484 -2.75835 -2.82179 -2.90595 -3.0098 -3.13089 -3.26481 -3.40574 -3.54627 -3.67742 -3.78951 -3.87214 -3.91546 -3.91101 -3.85334 -3.74139 -3.57838 -3.36965 -3.1219 -2.84376 -2.54479 -2.23604 -1.92765 -1.62847 -1.34613 -1.08545 
1.57551 1.48806 1.37528 1.23251 1.05532 0.842035 0.594731 0.319096 0.0231451 -0.284929 -0.595709 -0.900078 -1.18903 -1.45366 -1.68652 -1.88095 -2.03429 -2.14865 -2.22982 -2.28591 -2.32552 -2.3571 -2.38836 -2.42592 -2.47536 -2.54084 -2.62518 -2.72972 -2.85397 -2.996 -3.15182 -3.31596 -3.48131 -3.639 -3.77942 -3.89201 -3.96666 -3.99444 -3.9691 -3.88863 -3.75519 -3.5732 -3.34884 -3.09081 -2.80906 -2.51472 -2.21787 -1.9272 -1.65001 -1.39072 
1.98325 1.92296 1.83964 1.72744 1.58057 1.39554 1.17253 0.916035 0.63351 0.332883 0.0234627 -0.285725 -0.585618 -0.867005 -1.12208 -1.34349 -1.52709 -1.67326 -1.78617 -1.87255 -1.93987 -1.99601 -2.04858 -2.10449 -2.16989 -2.24962 -2.34724 -2.46485 -2.60264 -2.75934 -2.93145 -3.11392 -3.29997 -3.48088 -3.64712 -3.788 -3.89319 -3.95335 -3.96149 -3.91475 -3.81415 -3.66325 -3.46795 -3.23712 -2.98071 -2.7095 -2.43309 -2.15961 -1.89589 -1.64597 
2.37421 2.3404 2.2862 2.20478 2.0891 1.93392 1.7375 1.5028 1.23659 0.946443 0.641466 0.330549 0.0227123 -0.272571 -0.547172 -0.793176 -1.00502 -1.18067 -1.32185 -1.43355 -1.52225 -1.59556 -1.66137 -1.72716 -1.7999 -1.88531 -1.98793 -2.11073 -2.25472 -2.41934 -2.6017 -2.79721 -2.99943 -3.19984 -3.38901 -3.55616 -3.69075 -3.78307 -3.82551 -3.81439 -3.74966 -3.63423 -3.47402 -3.27787 -3.05537 -2.81657 -2.57022 -2.32358 -2.08262 -1.85081 
2.73445 2.72602 2.70028 2.64944 2.56528 2.44094 2.27275 2.06203 1.81467 1.53783 1.24024 0.93065 0.618103 0.312157 0.0211868 -0.246204 -0.482663 -0.683224 -0.846862 -0.976965 -1.07928 -1.16143 -1.23178 -1.2986 -1.36984 -1.45231 -1.55158 -1.67165 -1.81444 -1.98018 -2.16662 -2.3697 -2.58335 -2.79928 -3.00816 -3.19918 -3.36162 -3.48547 -3.56254 -3.58841 -3.56215 -3.48638 -3.36713 -3.21292 -3.03267 -2.8354 -2.62871 -2.41874 -2.21032 -2.00605 
3.05062 3.06605 3.0676 3.04658 2.99366 2.90045 2.76144 2.57628 2.3498 2.08872 1.80133 1.49617 1.18223 0.869096 0.565632 0.281715 0.0266815 -0.191922 -0.37058 -0.511192 -0.618917 -0.701503 -0.767887 -0.827267 -0.888665 -0.96005 -1.04815 -1.15804 -1.29261 -1.45295 -1.63749 -1.84274 -2.06303 -2.29032 -2.51545 -2.72758 -2.91587 -3.07004 -3.18145 -3.24499 -3.25917 -3.2267 -3.15358 -3.04773 -2.91719 -2.76968 -2.61151 -2.44746 -2.281 -2.11363 
3.31148 3.34882 3.37607 3.38367 3.3612 3.29882 3.18939 3.03085 2.82689 2.58368 2.30908 2.01139 1.69941 1.38303 1.07226 0.778678 0.513132 0.284835 0.0993394 -0.0437503 -0.148987 -0.224226 -0.278997 -0.323436 -0.367662 -0.420855 -0.49092 -0.584036 -0.704142 -0.853167 -1.03032 -1.23265 -1.45497 -1.68952 -1.92733 -2.15757 -2.36934 -2.55215 -2.69698 -2.79824 -2.85424 -2.86794 -2.84512 -2.7929 -2.71827 -2.62754 -2.52553 -2.41555 -2.29956 -2.1778 
3.50527 3.56218 3.61321 3.64793 3.65485 3.62275 3.5429 3.41166 3.23152 3.00803 2.74859 2.46122 2.15478 1.84009 1.52879 1.23385 0.966984 0.738123 0.554177 0.41626 0.320584 0.259328 0.222475 0.199018 0.177798 0.148448 0.101907 0.0308882 -0.0695964 -0.202349 -0.367354 -0.56228 -0.782391 -1.02028 -1.26719 -1.51238 -1.74492 -1.95419 -2.13084 -2.26912 -2.3675 -2.42909 -2.45933 -2.46442 -2.4502 -2.42146 -2.38152 -2.33209 -2.27353 -2.20474 
3.6204 3.69446 3.76737 3.82776 3.86305 3.86066 3.8104 3.70709 3.55204 3.3501 3.10816 2.83409 2.53743 2.23055 1.92652 1.63911 1.38034 1.16017 0.986014 0.860237 0.78007 0.737994 0.723728 0.72555 0.7314 0.729813 0.710636 0.665522 0.588449 0.475748 0.326641 0.14284 -0.0714226 -0.309125 -0.561761 -0.818732 -1.06914 -1.30233 -1.5087 -1.68263 -1.82299 -1.93295 -2.0175 -2.08185 -2.13068 -2.16722 -2.19326 -2.20894 -2.21293 -2.20274 
3.64619 3.7352 3.82829 3.9131 3.97593 4.00284 3.98225 3.90757 3.77893 3.60044 3.37853 3.12133 2.83972 2.54756 2.25886 1.98771 1.746 1.54334 1.38682 1.27943 1.21953 1.20031 1.21153 1.24104 1.27608 1.30426 1.31444 1.29731 1.24587 1.1556 1.02494 0.854981 0.64942 0.414861 0.159511 -0.106224 -0.371542 -0.625797 -0.859329 -1.06691 -1.24785 -1.40531 -1.54379 -1.66751 -1.78001 -1.88301 -1.97679 -2.05995 -2.1295 -2.18155 
3.57486 3.67704 3.78894 3.89719 3.98689 4.0428 4.05199 4.00663 3.90571 3.75263 3.55355 3.31751 3.05688 2.78648 2.52077 2.27382 2.05716 1.87975 1.74793 1.6645 1.62856 1.63438 1.67223 1.72989 1.79421 1.85209 1.89162 1.90264 1.87726 1.8102 1.69913 1.54451 1.34951 1.12029 0.86471 0.592933 0.315614 0.0433342 -0.214402 -0.452918 -0.671928 -0.874551 -1.06483 -1.24605 -1.42065 -1.58898 -1.74988 -1.90046 -2.03617 -2.15174 
3.40281 3.51692 3.64674 3.77777 3.89395 3.97871 4.01789 4.00254 3.93065 3.805 3.63202 3.42196 3.18826 2.94621 2.71034 2.49437 2.30931 2.16342 2.06213 2.00745 1.99847 2.03041 2.09457 2.17913 2.27095 2.35654 2.42348 2.46093 2.46027 2.41552 2.32367 2.18457 2.00088 1.77826 1.52423 1.24866 0.962006 0.674718 0.396001 0.129896 -0.123691 -0.36785 -0.606211 -0.841222 -1.07439 -1.30476 -1.52988 -1.74554 -1.94569 -2.12377 
3.13169 3.25709 3.40435 3.55782 3.70022 3.81372 3.88304 3.89827 3.85659 3.76051 3.61712 3.43775 3.23639 3.02831 2.82781 2.64805 2.4994 2.38942 2.32263 2.30022 2.32051 2.37899 2.46805 2.57684 2.69272 2.80224 2.89276 2.95304 2.9739 2.94884 2.87422 2.74938 2.57646 2.36067 2.10914 1.83142 1.53773 1.23837 0.94214 0.652402 0.368705 0.087946 -0.19319 -0.476467 -0.762592 -1.04951 -1.33366 -1.60963 -1.87005 -2.1072 
2.76803 2.90471 3.0694 3.24524 3.41375 3.5559 3.65543 3.70171 3.69135 3.62703 3.51664 3.37213 3.20754 3.03781 2.87671 2.73669 2.62744 2.55578 2.52547 2.53697 2.58777 2.67283 2.785 2.91453 3.04988 3.17814 3.28685 3.36472 3.40227 3.39263 3.33173 3.21844 3.05447 2.84459 2.59558 2.31666 2.01779 1.70908 1.3989 1.08994 0.781372 0.470012 0.152735 -0.171722 -0.503448 -0.839516 -1.17544 -1.50482 -1.81915 -2.10969 
2.32314 2.47173 2.65423 2.85259 3.04716 3.2178 3.34749 3.42513 3.44711 3.41664 3.34216 3.23573 3.11113 2.98263 2.86332 2.7648 2.69605 2.66319 2.66933 2.71436 2.79513 2.90599 3.0394 3.18611 3.33583 3.47677 3.59718 3.68609 3.73408 3.73417 3.68202 3.57621 3.41809 3.21211 2.96468 2.68475 2.38206 2.06648 1.74593 1.42247 1.09488 0.759795 0.414131 0.0569243 -0.311514 -0.687626 -1.06624 -1.44019 -1.80008 -2.13632 
1.81361 1.97526 2.17627 2.3974 2.61792 2.81674 2.97628 3.08533 3.1405 3.14548 3.10891 3.0426 2.95971 2.87365 2.79671 2.73958 2.71049 2.71497 2.75553 2.83171 2.93994 3.07418 3.22638 3.38699 3.54627 3.6937 3.81879 3.91141 3.96259 3.96557 3.91603 3.81245 3.65598 3.45082 3.20317 2.92173 2.61606 2.2958 1.96841 1.63538 1.29507 0.94382 0.578433 0.19802 -0.196941 -0.602533 -1.01316 -1.42115 -1.81645 -2.18885 
1.25847 1.43481 1.6553 1.89954 2.14584 2.37238 2.56129 2.70166 2.79055 2.83194 2.83429 2.80884 2.76792 2.72393 2.68825 2.67066 2.67866 2.71724 2.78848 2.89168 3.02309 3.17653 3.34372 3.51468 3.6794 3.8279 3.951 4.03991 4.08666 4.0851 4.03129 3.92384 3.76396 3.55578 3.3054 3.02141 2.71318 2.39009 2.05923 1.72159 1.37505 1.01558 0.639695 0.246345 -0.164068 -0.587557 -1.01838 -1.44863 -1.86789 -2.26558 
0.680456 0.873505 1.11458 1.38224 1.654 1.90755 2.12516 2.29649 2.41907 2.49695 2.53804 2.55279 2.55254 2.5486 2.55138 2.56975 2.61057 2.67835 2.77486 2.89935 3.04807 3.21492 3.39169 3.56825 3.73422 3.87935 3.995 4.07367 4.10881 4.09539 4.03027 3.91258 3.74383 3.52836 3.27236 2.98445 2.67378 2.34947 2.01832 1.68091 1.33466 0.975062 0.598186 0.202587 -0.211657 -0.640791 -1.07922 -1.5191 -1.94995 -2.36107 
0.102504 0.314566 0.577441 0.868775 1.16551 1.44521 1.69068 1.89238 2.04809 2.16164 2.24018 2.29317 2.3309 2.36351 2.40047 2.44978 2.51769 2.60836 2.72339 2.86211 3.02095 3.19413 3.37373 3.54977 3.71179 3.84916 3.95303 4.01651 4.03429 4.00273 3.91994 3.78602 3.60319 3.37633 3.11192 2.81868 2.50558 2.18148 1.853 1.52046 1.18084 0.82909 0.46068 0.0735495 -0.332795 -0.755137 -1.18833 -1.62488 -2.05458 -2.46693 
-0.452672 -0.219107 0.0668073 0.381998 0.703143 1.00804 1.28046 1.51162 1.69929 1.84683 1.96046 2.04857 2.12031 2.18469 2.25024 2.32418 2.41223 2.51831 2.64398 2.78877 2.94949 3.12088 3.2955 3.4638 3.61554 3.73994 3.82777 3.87214 3.86853 3.81443 3.70931 3.55456 3.35354 3.11204 2.83713 2.53757 2.22217 1.8997 1.5767 1.25342 0.926453 0.590186 0.239365 -0.128897 -0.515903 -0.91927 -1.3346 -1.75508 -2.17111 -2.57266 
-0.962944 -0.705348 -0.395225 -0.0561143 0.288758 0.617935 0.916287 1.17561 1.39343 1.57243 1.71779 1.8368 1.93746 2.02769 2.11514 2.20633 2.30658 2.41964 2.54718 2.68909 2.84273 3.00347 3.16457 3.31716 3.45145 3.55684 3.62386 3.64533 3.61716 3.53776 3.40779 3.22989 3.00872 2.75117 2.46494 2.15895 1.842 1.52284 1.20813 0.898236 0.589534 0.275827 -0.0489338 -0.388644 -0.745629 -1.11863 -1.50429 -1.89679 -2.2875 -2.66716 
-1.41042 -1.12629 -0.79084 -0.427772 -0.0597787 0.292883 0.616181 0.902129 1.14779 1.35507 1.52807 1.67294 1.7966 1.90593 2.00781 2.10813 2.21195 2.32296 2.44308 2.57267 2.70978 2.8506 2.98925 3.11773 3.22692 3.30671 3.34766 3.34228 3.28657 3.17977 3.02373 2.82233 2.58134 2.30849 2.01195 1.70093 1.38429 1.0708 0.767421 0.474952 0.189706 -0.0950085 -0.386081 -0.68855 -1.00596 -1.33843 -1.68392 -2.03793 -2.39315 -2.74141 
-1.78016 -1.4672 -1.10545 -0.718407 -0.327701 0.047849 0.395034 0.705772 0.976524 1.20834 1.40424 1.5693 1.70941 1.83051 1.93878 2.03967 2.13804 2.23768 2.34086 2.44855 2.55963 2.67123 2.77849 2.87446 2.95091 2.99844 3.00794 2.97182 2.88599 2.75029 2.56785 2.34371 2.08452 1.79852 1.49419 1.18091 0.867594 0.563033 0.274512 0.00349509 -0.25352 -0.5036 -0.754417 -1.01228 -1.28214 -1.56566 -1.86238 -2.16932 -2.48071 -2.78963 
-2.06314 -1.7193 -1.33037 -0.919197 -0.505832 -0.107728 0.262273 0.595792 0.888599 1.14087 1.35459 1.53382 1.68348 1.80873 1.91519 2.00795 2.09181 2.17078 2.24765 2.32406 2.39987 2.47328 2.54057 2.59603 2.63245 2.64142 2.61442 2.54407 2.42623 2.26108 2.05283 1.80745 1.53215 1.23562 0.926459 0.614166 0.307718 0.0157437 -0.25423 -0.499924 -0.724455 -0.935153 -1.14041 -1.3478 -1.56369 -1.79152 -2.03248 -2.28523 -2.5456 -2.80809 
-2.25566 -1.87928 -1.46238 -1.02662 -0.590268 -0.169768 0.221967 0.57614 0.887806 1.15628 1.38257 1.5698 1.72208 1.8439 1.9404 2.01651 2.07711 2.1265 2.16813 2.20444 2.23639 2.26336 2.28289 2.29064 2.28063 2.24562 2.17795 2.07077 1.92008 1.72609 1.49353 1.22896 0.94 0.635743 0.324836 0.0168693 -0.279228 -0.555144 -0.803241 -1.02046 -1.20924 -1.37693 -1.53264 -1.68514 -1.8422 -2.00901 -2.18847 -2.38091 -2.58392 -2.79349 
-2.3593 -1.94927 -1.50367 -1.04259 -0.582659 -0.139954 0.272323 0.644918 0.972158 1.25254 1.48616 1.67536 1.82352 1.93461 2.01347 2.06498 2.09421 2.10593 2.10434 2.09278 2.07344 2.04696 2.01227 1.96656 1.9052 1.82234 1.71144 1.56638 1.38337 1.16218 0.907479 0.626268 0.326487 0.0174296 -0.292104 -0.592558 -0.87517 -1.13192 -1.35534 -1.54174 -1.69265 -1.81515 -1.9189 -2.01379 -2.10888 -2.21103 -2.32478 -2.4522 -2.59269 -2.74385 
-2.38101 -1.93678 -1.46176 -0.974311 -0.49025 -0.025752 0.405766 0.794499 1.13405 1.42215 1.65812 1.84357 1.98133 2.075 2.12924 2.14904 2.13981 2.10686 2.05531 1.98951 1.91293 1.82763 1.73403 1.63097 1.51535 1.38287 1.22818 1.04586 0.83211 0.58597 0.311792 0.0167569 -0.290888 -0.601663 -0.906732 -1.1967 -1.46297 -1.69784 -1.89428 -2.04821 -2.16022 -2.2369 -2.28809 -2.32452 -2.35633 -2.39188 -2.43734 -2.49648 -2.5706 -2.65896 
-2.33111 -1.85294 -1.348 -0.833536 -0.325309 0.160202 0.609376 1.01183 1.36045 1.65227 1.88593 2.06246 2.18425 2.25471 2.27843 2.26068 2.20732 2.12436 2.01791 1.89342 1.75583 1.60865 1.45392 1.29225 1.12216 0.940805 0.743737 0.526035 0.283852 0.0155885 -0.274958 -0.58068 -0.892996 -1.20237 -1.50004 -1.77667 -2.02405 -2.23485 -2.40265 -2.52345 -2.59705 -2.62909 -2.62913 -2.60832 -2.57762 -2.54671 -2.52327 -2.51274 -2.51833 -2.54102 
-2.22116 -1.71035 -1.17583 -0.634768 -0.103253 0.401879 0.866673 1.28019 1.63466 1.92644 2.15359 2.31671 2.41788 2.46043 2.44907 2.38947 2.28807 2.15169 1.98756 1.80235 1.60255 1.39324 1.17806 0.959343 0.736968 0.509303 0.272642 0.0224054 -0.245205 -0.5323 -0.835766 -1.1487 -1.46234 -1.76722 -2.05466 -2.31549 -2.54188 -2.72704 -2.86539 -2.95348 -2.99054 -2.9808 -2.93295 -2.85812 -2.76772 -2.67253 -2.58158 -2.50192 -2.4386 -2.39434 
-2.06072 -1.52011 -0.958203 -0.392698 0.159802 0.68203 1.15966 1.58117 1.93813 2.2263 2.44325 2.58923 2.66617 2.67747 2.62807 2.52418 2.37296 2.18214 1.9602 1.71509 1.45485 1.18605 0.913788 0.641838 0.371143 0.101119 -0.171241 -0.450195 -0.739506 -1.04174 -1.35444 -1.67103 -1.98274 -2.28012 -2.55469 -2.79756 -3.00141 -3.16026 -3.26951 -3.32645 -3.32999 -3.2828 -3.19206 -3.06833 -2.92309 -2.76791 -2.61296 -2.46672 -2.33603 -2.22531 
-1.85675 -1.29071 -0.705612 -0.119896 0.449359 0.98464 1.47117 1.89688 2.25266 2.53373 2.73725 2.86325 2.91358 2.89185 2.80335 2.65497 2.45466 2.21115 1.93418 1.63292 1.3168 0.993687 0.669908 0.350402 0.0370351 -0.269933 -0.572973 -0.876052 -1.1829 -1.49645 -1.81481 -2.13175 -2.43854 -2.72581 -2.98527 -3.20857 -3.38921 -3.52227 -3.60411 -3.63258 -3.6066 -3.52747 -3.40039 -3.23472 -3.04154 -2.83281 -2.61956 -2.41151 -2.21711 -2.04241 
-1.61516 -1.02877 -0.425816 0.174656 0.755251 1.29835 1.78885 2.21422 2.56479 2.83525 3.0225 3.12643 3.1489 3.09381 2.96691 2.7758 2.5293 2.23713 1.9102 1.55878 1.19349 0.823254 0.45538 0.0957406 -0.253104 -0.590281 -0.917895 -1.23975 -1.55958 -1.88063 -2.20144 -2.51607 -2.81582 -3.09137 -3.33458 -3.53786 -3.69591 -3.80496 -3.86221 -3.86594 -3.81516 -3.71028 -3.55448 -3.35528 -3.12275 -2.86879 -2.60491 -2.3418 -2.0893 -1.85494 
-1.34335 -0.742176 -0.12725 0.482089 1.06825 1.61346 2.10254 2.52277 2.86401 3.12058 3.28917 3.36963 3.36392 3.27632 3.11308 2.88261 2.59457 2.25964 1.88975 1.4961 1.09028 0.682031 0.279348 -0.111243 -0.486761 -0.845984 -1.19087 -1.52522 -1.85289 -2.17738 -2.49762 -2.80783 -3.09936 -3.36286 -3.59043 -3.77548 -3.91377 -4.00241 -4.03927 -4.02304 -3.95294 -3.82897 -3.65271 -3.42946 -3.16763 -2.87846 -2.57351 -2.26407 -1.96108 -1.67333 
-1.04935 -0.439224 0.181568 0.793614 1.37938 1.92101 2.40341 2.81377 3.14173 3.38141 3.52937 3.58544 3.55186 3.43341 3.23694 2.97169 2.64815 2.27782 1.87353 1.44718 1.01108 0.575492 0.148835 -0.262055 -0.65407 -1.02594 -1.37974 -1.71943 -2.04912 -2.37262 -2.68913 -2.99303 -3.27562 -3.52765 -3.7419 -3.9127 -4.0365 -4.11073 -4.13348 -4.10363 -4.02065 -3.88457 -3.6962 -3.45882 -3.17861 -2.86548 -2.53048 -2.18505 -1.84086 -1.50767 
-0.741606 -0.128706 0.491681 1.10029 1.67969 2.21214 2.68269 3.07861 3.38958 3.60957 3.73514 3.76632 3.70574 3.55883 3.33315 3.03873 2.68685 2.28971 1.86083 1.41261 0.95778 0.506841 0.0682978 -0.351044 -0.748261 -1.12237 -1.47578 -1.81288 -2.13817 -2.45578 -2.7651 -3.06066 -3.33379 -3.57569 -3.78008 -3.94208 -4.05838 -4.12626 -4.14351 -4.10866 -4.02105 -3.88077 -3.68861 -3.44682 -3.15941 -2.83425 -2.48122 -2.11138 -1.73665 -1.36741 
-0.42989 0.179608 0.793467 1.39266 1.95988 2.47766 2.93138 3.30857 3.59903 3.79668 3.89834 3.90444 3.81822 3.64588 3.39573 3.0786 2.70642 2.292 1.84931 1.39101 0.929958 0.476568 0.0391119 -0.375997 -0.766345 -1.13155 -1.47467 -1.80068 -2.11465 -2.42104 -2.71945 -3.00444 -3.26764 -3.50119 -3.69986 -3.85925 -3.97594 -4.04673 -4.06864 -4.03939 -3.95757 -3.82286 -3.636 -3.39915 -3.11522 -2.78992 -2.4313 -2.04937 -1.65574 -1.26098 
-0.123228 0.476878 1.07826 1.66218 2.21166 2.70965 3.1419 3.4962 3.76258 3.93525 4.01154 3.99257 3.88238 3.68803 3.41861 3.08569 2.7018 2.28014 1.83493 1.37886 0.924572 0.482098 0.0591354 -0.338654 -0.709686 -1.05451 -1.37709 -1.68321 -1.97862 -2.2682 -2.55165 -2.82359 -3.07643 -3.3036 -3.50081 -3.6639 -3.78909 -3.87242 -3.90982 -3.89779 -3.8337 -3.7162 -3.54539 -3.3233 -3.05274 -2.73835 -2.38617 -2.00448 -1.60391 -1.19473 
0.169224 0.754086 1.33729 1.90044 2.42704 2.90051 3.30685 3.63415 3.87291 4.018 4.06762 4.02381 3.89155 3.67886 3.39561 3.05409 2.66725 2.24858 1.81228 1.37081 0.93631 0.518104 0.122991 -0.244473 -0.58384 -0.896908 -1.18877 -1.46624 -1.73586 -2.0029 -2.26714 -2.52346 -2.76549 -2.98815 -3.18792 -3.36068 -3.50217 -3.60742 -3.67102 -3.68797 -3.65399 -3.56627 -3.42367 -3.22742 -2.98016 -2.68648 -2.35145 -1.98152 -1.58562 -1.17308 
0.439358 1.00354 1.56325 2.10058 2.59958 3.04399 3.42001 3.71619 3.92389 4.03896 4.06074 3.99242 3.84008 3.61274 3.32111 2.97805 2.59689 2.19119 1.77492 1.36006 0.957945 0.576883 0.222464 -0.102195 -0.39807 -0.668493 -0.919917 -1.16031 -1.39712 -1.63599 -1.87669 -2.11475 -2.34544 -2.56511 -2.77089 -2.95863 -3.12343 -3.25922 -3.35904 -3.41617 -3.42439 -3.37901 -3.27722 -3.11878 -2.90556 -2.64195 -2.33311 -1.98466 -1.60376 -1.19814 
0.67856 1.21774 1.74956 2.25677 2.7238 3.13465 3.476 3.73716 3.91064 3.99347 3.98643 3.89402 3.72355 3.48515 3.1903 2.85243 2.48508 2.10175 1.71594 1.33892 0.980933 0.648973 0.347139 0.076799 -0.164705 -0.382486 -0.584537 -0.780097 -0.977565 -1.18285 -1.3958 -1.613 -1.83159 -2.04928 -2.26379 -2.47088 -2.66493 -2.83872 -2.98362 -3.09103 -3.15255 -3.16132 -3.11247 -3.0038 -2.8358 -2.61196 -2.33743 -2.01807 -1.66028 -1.27014 
0.875655 1.38739 1.88879 2.36301 2.79458 3.16798 3.47073 3.69341 3.82995 3.87881 3.84226 3.7263 3.53962 3.29346 3.00013 2.67354 2.32735 1.9748 1.62875 1.29953 0.99602 0.723661 0.484792 0.278771 0.10104 -0.0554966 -0.200499 -0.344535 -0.496916 -0.663691 -0.845003 -1.03884 -1.24431 -1.46044 -1.6855 -1.91513 -2.14302 -2.36074 -2.55793 -2.72405 -2.84835 -2.92158 -2.9365 -2.88858 -2.77641 -2.60196 -2.36971 -2.08568 -1.75661 -1.38793 
1.0188 1.50238 1.97255 2.41246 2.80658 3.14001 3.40145 3.58303 3.68053 3.69411 3.62771 3.48889 3.28778 3.03682 2.74915 2.4391 2.12035 1.80577 1.50738 1.23438 0.994047 0.79005 0.622748 0.48927 0.382989 0.294683 0.212958 0.125926 0.0234629 -0.100479 -0.246593 -0.414631 -0.605677 -0.820019 -1.05649 -1.31064 -1.57547 -1.84139 -2.09631 -2.32767 -2.52228 -2.6684 -2.75617 -2.7784 -2.73143 -2.61519 -2.43288 -2.19003 -1.89377 -1.55 
